ply
        format ascii 1.0
        element vertex 7422
        property float x
        property float y
        property float z
        property uchar red
        property uchar green
        property uchar blue
        end_header
0.116959 -2.549708 -9.094736 151 151 81
0.315789 -2.294737 -8.185263 146 141 93
0.356955 -2.288714 -8.163779 145 137 91
0.391753 -2.247423 -8.016495 143 133 87
0.454054 -2.356757 -8.406487 140 129 83
0.819672 -1.191257 -4.249180 106 96 85
0.841530 -1.191257 -4.249180 106 95 85
0.950147 -1.278592 -4.560704 115 105 93
0.947218 -1.243937 -4.437090 118 109 95
0.952381 -1.221289 -4.356302 120 110 94
0.992867 -1.243937 -4.437090 125 112 97
1.048601 -1.284242 -4.580854 131 116 101
1.067449 -1.278592 -4.560704 135 118 103
1.090909 -1.278592 -4.560704 138 118 103
-6.531250 -3.468750 -12.150000 139 121 97
-6.468750 -3.468750 -12.150000 137 118 96
-6.406250 -3.468750 -12.150000 136 116 95
-6.343750 -3.468750 -12.150000 136 115 94
-6.281250 -3.468750 -12.150000 135 115 93
-6.218750 -3.468750 -12.150000 134 116 93
-6.156250 -3.468750 -12.150000 136 120 97
-6.093750 -3.468750 -12.150000 132 122 102
-6.031250 -3.468750 -12.150000 127 119 101
-3.932584 -2.494382 -8.737079 100 91 72
-3.720430 -2.387097 -8.361290 104 94 73
-3.600000 -2.336842 -8.185263 109 98 75
-3.475578 -2.282776 -7.995887 113 102 78
-1.918819 -3.276753 -11.477490 160 177 105
-0.984375 -1.734375 -6.075000 163 179 107
-1.093834 -2.380697 -8.338874 162 175 108
-1.018182 -2.306494 -8.078960 158 170 105
-0.697588 -1.647495 -5.770686 158 170 103
-0.667904 -1.647495 -5.770686 161 172 102
-1.166102 -3.010170 -10.543729 162 172 99
-0.530466 -1.591398 -5.574193 162 169 96
-0.501792 -1.591398 -5.574193 162 169 98
-0.471429 -1.585714 -5.554286 161 170 100
-0.895307 -3.205776 -11.228881 158 168 97
-0.746269 -3.313433 -11.605969 158 170 95
-0.673993 -3.252747 -11.393406 157 168 97
-0.587413 -3.104895 -10.875525 158 168 102
-0.506667 -2.960000 -10.368000 159 166 104
-0.450331 -2.940397 -10.299337 155 162 99
-0.394737 -2.921053 -10.231579 153 161 95
-0.329114 -2.810127 -9.843038 154 164 92
-0.269939 -2.723926 -9.541104 153 163 88
-0.209913 -2.588921 -9.068221 151 161 83
-0.167164 -2.650746 -9.284776 153 161 82
-0.119403 -2.650746 -9.284776 154 161 82
-0.024615 -2.732308 -9.570461 151 155 76
0.023392 -2.596491 -9.094736 150 153 73
0.067606 -2.501408 -8.761690 151 151 71
0.112676 -2.501408 -8.761690 151 150 71
0.157746 -2.501408 -8.761690 152 148 77
0.317460 -2.349206 -8.228571 145 133 98
0.357895 -2.336842 -8.185263 142 128 97
0.396867 -2.318538 -8.121148 139 123 93
0.454054 -2.400000 -8.406487 130 115 85
0.990826 -1.357798 -4.755963 110 102 92
0.973607 -1.302053 -4.560704 114 105 95
0.982659 -1.283237 -4.494798 118 109 98
1.032641 -1.317507 -4.614837 126 114 102
1.056380 -1.317507 -4.614837 130 116 103
1.072165 -1.307806 -4.580854 133 117 103
1.095729 -1.307806 -4.580854 136 119 103
-6.468750 -3.531250 -12.150000 139 119 94
-6.406250 -3.531250 -12.150000 139 119 95
-6.343750 -3.531250 -12.150000 136 116 92
-6.281250 -3.531250 -12.150000 134 116 92
-6.218750 -3.531250 -12.150000 131 115 90
-6.156250 -3.531250 -12.150000 133 118 93
-6.093750 -3.531250 -12.150000 131 122 99
-6.031250 -3.531250 -12.150000 130 122 102
-4.884489 -2.983498 -10.265347 107 94 70
-4.662420 -2.878981 -9.905732 107 95 73
-4.552631 -2.973684 -10.231579 105 95 75
-4.412903 -2.916129 -10.033548 107 95 74
-4.084592 -2.731118 -9.396978 109 96 76
-4.241270 -2.869841 -9.874286 109 97 78
-4.907063 -3.360595 -11.562825 109 98 80
-4.776557 -3.311355 -11.393406 109 95 81
-4.649819 -3.263538 -11.228881 114 98 83
-4.592058 -3.263538 -11.228881 126 109 90
-1.023499 -2.360313 -8.121148 160 170 109
-0.954315 -2.294416 -7.894416 162 171 110
-0.667904 -1.677180 -5.770686 163 172 108
-0.634686 -1.667897 -5.738745 163 170 104
-0.605166 -1.667897 -5.738745 162 168 100
-1.057627 -3.064407 -10.543729 161 165 96
-0.915129 -3.335793 -11.477490 156 166 95
-0.865672 -3.373134 -11.605969 152 164 91
-0.805970 -3.373134 -11.605969 154 166 91
-0.746269 -3.373134 -11.605969 155 166 93
-0.587413 -3.160839 -10.875525 157 164 102
-0.506667 -3.013333 -10.368000 156 161 102
-0.447368 -2.973684 -10.231579 151 157 97
-0.385852 -2.906752 -10.001286 150 159 94
-0.329114 -2.860759 -9.843038 150 160 91
-0.269939 -2.773006 -9.541104 149 159 86
-0.209913 -2.635569 -9.068221 149 158 83
-0.119403 -2.698508 -9.284776 150 155 79
-0.071642 -2.698508 -9.284776 150 155 77
-0.021622 -2.443243 -8.406487 147 150 72
0.022284 -2.518106 -8.664066 147 148 68
0.066116 -2.490358 -8.568595 149 148 67
0.110193 -2.490358 -8.568595 152 147 68
0.153005 -2.469945 -8.498361 151 144 73
0.196721 -2.469945 -8.498361 147 138 81
0.282609 -2.456522 -8.452173 146 132 98
0.317460 -2.391534 -8.228571 144 129 100
0.359788 -2.391534 -8.228571 135 118 92
0.400000 -2.378947 -8.185263 122 104 79
0.456522 -2.456522 -8.452173 108 90 65
1.010654 -1.375951 -4.734246 114 105 97
1.035008 -1.375951 -4.734246 118 108 99
1.059361 -1.375951 -4.734246 126 114 104
1.075529 -1.365559 -4.698489 129 115 103
1.080119 -1.341246 -4.614837 133 116 103
1.103858 -1.341246 -4.614837 136 119 104
1.144578 -1.361446 -4.684337 137 120 103
-6.531250 -3.593750 -12.150000 137 116 90
-6.468750 -3.593750 -12.150000 138 117 92
-6.406250 -3.593750 -12.150000 138 116 93
-6.082397 -3.445693 -11.649438 135 115 91
-6.281250 -3.593750 -12.150000 134 115 91
-6.218750 -3.593750 -12.150000 131 114 89
-6.156250 -3.593750 -12.150000 132 117 91
-6.093750 -3.593750 -12.150000 133 121 95
-5.020134 -3.087248 -10.437584 117 105 81
-4.713376 -2.929936 -9.905732 109 97 74
-4.662420 -2.929936 -9.905732 109 95 75
-4.655949 -2.958199 -10.001286 109 94 79
-5.226277 -3.357664 -11.351825 105 94 81
-5.167883 -3.357664 -11.351825 107 97 82
-5.109489 -3.357664 -11.351825 108 96 80
-4.613333 -3.066667 -10.368000 106 94 76
-4.591065 -3.161512 -10.688660 104 93 74
-4.536082 -3.161512 -10.688660 105 95 78
-4.707581 -3.321300 -11.228881 106 93 78
-4.616488 -3.297491 -11.148387 109 92 79
-4.559140 -3.297491 -11.148387 112 93 79
-1.023499 -2.402089 -8.121148 160 170 110
-0.979167 -2.395833 -8.099999 160 169 110
-0.913706 -2.335025 -7.894416 160 167 109
-0.638219 -1.706865 -5.770686 161 167 108
-0.605166 -1.697417 -5.738745 160 165 104
-1.057627 -3.118644 -10.543729 159 163 97
-0.915129 -3.394834 -11.477490 154 163 92
-0.856089 -3.394834 -11.477490 151 161 89
-0.791209 -3.369963 -11.393406 153 164 90
-0.746269 -3.432836 -11.605969 156 165 94
-0.453333 -3.066667 -10.368000 152 158 95
-0.398671 -3.056479 -10.333554 151 159 93
-0.334405 -2.958199 -10.001286 148 158 88
0.066482 -2.548476 -8.616066 146 143 68
0.110193 -2.534435 -8.568595 147 141 69
0.152174 -2.500000 -8.452173 145 137 73
0.191489 -2.446809 -8.272340 142 133 80
0.231579 -2.421053 -8.185263 143 131 91
0.282609 -2.500000 -8.452173 138 123 94
0.325203 -2.493225 -8.429268 128 112 88
0.368564 -2.493225 -8.429268 114 96 74
0.413043 -2.500000 -8.452173 102 84 61
1.057543 -1.430793 -4.837325 120 108 99
1.082426 -1.430793 -4.837325 122 108 98
1.083714 -1.400304 -4.734246 127 111 101
1.101362 -1.391831 -4.705597 134 116 104
1.120482 -1.385542 -4.684337 135 119 104
1.144578 -1.385542 -4.684337 137 121 104
-6.593750 -3.656250 -12.150000 136 114 86
-6.531250 -3.656250 -12.150000 139 116 90
-6.468750 -3.656250 -12.150000 140 116 92
-6.142322 -3.505618 -11.649438 138 115 92
-5.992620 -3.453875 -11.477490 135 113 90
-6.281250 -3.656250 -12.150000 132 114 89
-6.218750 -3.656250 -12.150000 131 115 88
-6.156250 -3.656250 -12.150000 132 117 89
-6.093750 -3.656250 -12.150000 134 118 90
-5.020134 -3.140940 -10.437584 116 108 83
-4.713376 -2.980892 -9.905732 110 100 76
-4.647619 -2.971429 -9.874286 110 96 78
-4.794702 -3.099338 -10.299337 112 96 83
-4.666667 -3.120000 -10.368000 108 94 78
-4.552631 -3.078947 -10.231579 106 93 74
-4.456026 -3.048860 -10.131596 105 92 71
-4.622838 -3.238754 -10.762630 105 94 75
-4.567474 -3.238754 -10.762630 106 95 78
-4.512111 -3.238754 -10.762630 107 95 79
-4.600000 -3.342857 -11.108571 107 90 76
-4.542857 -3.342857 -11.108571 107 88 75
-4.501792 -3.354839 -11.148387 107 87 77
-0.986877 -2.456693 -8.163779 156 166 106
-0.937500 -2.437500 -8.099999 157 165 109
-0.634686 -1.726937 -5.738745 157 164 108
-0.605166 -1.726937 -5.738745 156 162 103
-0.857143 -2.571429 -8.545054 156 162 98
-0.915129 -3.453875 -11.477490 155 162 93
-0.856089 -3.453875 -11.477490 153 161 90
-0.791209 -3.428571 -11.393406 154 162 88
-0.451827 -3.109635 -10.333554 152 159 92
-0.398671 -3.109635 -10.333554 150 158 89
0.156250 -3.656250 -12.150000 143 136 71
0.155125 -2.592798 -8.616066 142 133 75
0.193029 -2.509383 -8.338874 137 126 79
0.343750 -3.656250 -12.150000 132 120 84
0.289694 -2.607242 -8.664066 121 106 81
0.334262 -2.607242 -8.664066 105 88 68
0.378830 -2.607242 -8.664066 96 78 59
1.115987 -1.467085 -4.875235 128 111 101
1.137500 -1.462500 -4.860000 133 115 105
1.130699 -1.422492 -4.727052 134 117 104
-6.593750 -3.718750 -12.150000 140 117 90
-6.531250 -3.718750 -12.150000 139 115 90
-6.468750 -3.718750 -12.150000 139 116 92
-6.406250 -3.718750 -12.150000 138 114 91
-6.059701 -3.552239 -11.605969 136 114 91
-6.045113 -3.578947 -11.693233 134 116 91
-6.218750 -3.718750 -12.150000 132 116 89
-6.156250 -3.718750 -12.150000 131 116 87
-6.093750 -3.718750 -12.150000 132 116 86
-6.031250 -3.718750 -12.150000 133 117 89
-4.933333 -3.173333 -10.368000 114 106 83
-4.847682 -3.152318 -10.299337 112 100 82
-4.810631 -3.162791 -10.333554 114 97 84
-5.167883 -3.474452 -11.351825 112 93 81
-5.109489 -3.474452 -11.351825 111 94 79
-4.552631 -3.131579 -10.231579 110 95 77
-4.485246 -3.121311 -10.198032 108 95 74
-4.462046 -3.141914 -10.265347 106 94 74
-4.423841 -3.152318 -10.299337 105 94 75
-4.536082 -3.271478 -10.688660 105 94 77
-4.375839 -3.194631 -10.437584 106 94 76
-4.551237 -3.363958 -10.990812 106 90 73
-4.184210 -3.131579 -10.231579 109 90 76
-4.438162 -3.363958 -10.990812 110 90 80
-0.931818 -2.704545 -8.836364 151 161 99
-0.886364 -2.704545 -8.836364 152 162 95
-0.856089 -3.512915 -11.477490 154 160 90
-0.464164 -3.249147 -10.615700 149 156 89
0.156250 -3.718750 -12.150000 138 129 73
0.155125 -2.637119 -8.616066 133 124 72
0.193029 -2.552279 -8.338874 121 110 66
0.343750 -3.718750 -12.150000 108 97 63
0.406250 -3.718750 -12.150000 102 87 64
-6.593750 -3.781250 -12.150000 141 119 94
-6.531250 -3.781250 -12.150000 138 116 92
-6.468750 -3.781250 -12.150000 138 115 92
-6.406250 -3.781250 -12.150000 137 114 92
-6.105263 -3.639098 -11.693233 136 115 92
-6.045113 -3.639098 -11.693233 136 117 93
-6.218750 -3.781250 -12.150000 133 117 91
-6.156250 -3.781250 -12.150000 132 117 89
-6.093750 -3.781250 -12.150000 133 116 86
-6.031250 -3.781250 -12.150000 133 117 88
-4.956522 -3.507246 -11.269565 108 95 74
-4.898551 -3.507246 -11.269565 106 93 74
-4.409241 -3.194720 -10.265347 104 91 74
-4.567474 -3.349481 -10.762630 104 91 75
-4.289474 -3.184211 -10.231579 106 93 74
-4.236842 -3.184211 -10.231579 108 93 74
-4.038095 -3.073016 -9.874286 111 93 77
-3.949686 -3.044025 -9.781132 111 92 79
-3.899371 -3.044025 -9.781132 106 88 76
-0.977273 -2.750000 -8.836364 151 162 97
-0.931818 -2.750000 -8.836364 149 160 94
-0.883853 -2.742210 -8.811331 149 160 90
-0.879433 -3.432624 -11.029787 155 158 94
-0.822695 -3.432624 -11.029787 155 158 90
-0.506667 -3.226667 -10.368000 147 153 80
-0.447368 -3.184211 -10.231579 146 152 82
-0.394737 -3.184211 -10.231579 149 153 83
-0.354949 -3.303754 -10.615700 150 153 81
0.156250 -3.781250 -12.150000 123 112 65
0.343750 -3.781250 -12.150000 97 85 54
0.406250 -3.781250 -12.150000 99 83 62
-6.593750 -3.843750 -12.150000 139 119 96
-6.531250 -3.843750 -12.150000 140 119 97
-6.468750 -3.843750 -12.150000 141 119 98
-6.406250 -3.843750 -12.150000 140 118 98
-6.343750 -3.843750 -12.150000 136 115 94
-6.281250 -3.843750 -12.150000 134 116 93
-6.218750 -3.843750 -12.150000 137 120 95
-6.156250 -3.843750 -12.150000 137 121 95
-6.093750 -3.843750 -12.150000 136 117 89
-5.761194 -3.671642 -11.605969 134 113 87
-5.968750 -3.843750 -12.150000 132 114 92
-5.003533 -3.477032 -10.990812 113 90 78
-5.014493 -3.565217 -11.269565 109 93 74
-4.671329 -3.440559 -10.875525 106 91 75
-4.615385 -3.440559 -10.875525 106 91 77
-4.361204 -3.290970 -10.402676 108 94 78
-4.307693 -3.290970 -10.402676 111 95 79
-4.170492 -3.226229 -10.198032 112 94 77
-3.949686 -3.094340 -9.781132 110 92 77
-3.887147 -3.084640 -9.750470 109 92 79
-3.284210 -3.452631 -10.913684 147 151 85
-3.228070 -3.452631 -10.913684 147 153 88
-3.149826 -3.428571 -10.837630 149 155 89
-2.937063 -3.440559 -10.875525 150 157 88
-2.871080 -3.428571 -10.837630 151 158 91
-1.328814 -3.335593 -10.543729 150 161 81
-1.053221 -2.756303 -8.712605 150 160 84
-1.014084 -2.771831 -8.761690 152 161 89
-0.969014 -2.771831 -8.761690 151 159 90
-0.929178 -2.787535 -8.811331 150 156 89
-0.876405 -2.764045 -8.737079 149 156 88
-0.835017 -3.313131 -10.472727 155 156 93
-0.797251 -3.381443 -10.688660 156 156 92
0.146520 -3.604396 -11.393406 104 91 56
0.343750 -3.843750 -12.150000 97 84 58
-6.531250 -3.906250 -12.150000 137 119 98
-6.468750 -3.906250 -12.150000 139 121 99
-6.165413 -3.759398 -11.693233 141 121 100
-6.343750 -3.906250 -12.150000 137 117 96
-6.281250 -3.906250 -12.150000 135 116 94
-6.218750 -3.906250 -12.150000 136 119 95
-5.924812 -3.759398 -11.693233 136 119 94
-5.799256 -3.717472 -11.562825 138 116 91
-5.739777 -3.717472 -11.562825 138 113 90
-5.968750 -3.906250 -12.150000 137 113 93
-5.149091 -3.636364 -11.310545 116 94 80
-5.090909 -3.636364 -11.310545 112 93 77
-5.014493 -3.623188 -11.269565 110 93 74
-4.956522 -3.623188 -11.269565 108 92 73
-4.754448 -3.558719 -11.069038 109 92 77
-4.583333 -3.472222 -10.799999 110 93 80
-4.361204 -3.344482 -10.402676 109 93 81
-4.293334 -3.333333 -10.368000 111 94 80
-4.211921 -3.311258 -10.299337 112 94 79
-4.158940 -3.311258 -10.299337 111 94 79
-4.105960 -3.311258 -10.299337 110 94 82
-3.284210 -3.508772 -10.913684 148 146 94
-3.205575 -3.484321 -10.837630 150 149 96
-3.085324 -3.412969 -10.615700 150 151 95
-3.020408 -3.401361 -10.579592 150 151 90
-2.976109 -3.412969 -10.615700 152 153 87
-2.872483 -3.355705 -10.437584 152 153 85
-2.926829 -3.484321 -10.837630 152 153 84
-2.841379 -3.448276 -10.725517 152 152 85
-2.825175 -3.496504 -10.875525 154 153 89
-2.798587 -3.533569 -10.990812 152 153 92
-0.929178 -2.832861 -8.811331 152 154 87
-0.869081 -2.785515 -8.664066 152 153 89
-0.815427 -2.754821 -8.568595 153 153 90
-0.784314 -2.801121 -8.712605 153 153 87
-0.877076 -3.322259 -10.333554 151 151 86
-0.823920 -3.322259 -10.333554 153 151 89
-6.593750 -3.968750 -12.150000 131 116 95
-6.531250 -3.968750 -12.150000 132 118 94
-6.468750 -3.968750 -12.150000 135 120 95
-5.899281 -3.654676 -11.188489 136 119 95
-5.841727 -3.654676 -11.188489 135 117 93
-5.955555 -3.762963 -11.520000 135 116 93
-6.218750 -3.968750 -12.150000 135 115 93
-5.837037 -3.762963 -11.520000 134 114 93
-5.799256 -3.776952 -11.562825 137 113 93
-5.718519 -3.762963 -11.520000 141 113 94
-5.680297 -3.776952 -11.562825 141 112 94
-5.090909 -3.694546 -11.310545 111 93 76
-4.839161 -3.552448 -10.875525 109 90 73
-4.750000 -3.527778 -10.799999 108 89 73
-4.811388 -3.615658 -11.069038 110 92 77
-4.671329 -3.552448 -10.875525 111 92 81
-4.583333 -3.527778 -10.799999 112 93 83
-4.361204 -3.397993 -10.402676 110 92 83
-4.293334 -3.386667 -10.368000 110 92 82
-4.326530 -3.455782 -10.579592 111 94 81
-4.272109 -3.455782 -10.579592 111 96 81
-4.217687 -3.455782 -10.579592 111 97 84
-3.261324 -3.540070 -10.837630 149 143 101
-2.053571 -2.267857 -6.942857 149 146 101
-3.128028 -3.515571 -10.762630 147 144 96
-3.030717 -3.467577 -10.615700 148 144 90
-3.017301 -3.515571 -10.762630 151 147 86
-2.872483 -3.409396 -10.437584 152 148 83
-2.916667 -3.527778 -10.799999 152 148 80
-2.793220 -3.444068 -10.543729 150 145 80
-2.805556 -3.527778 -10.799999 151 146 84
-2.657718 -3.409396 -10.437584 152 148 88
-1.804651 -2.362791 -7.233488 150 147 89
-1.767442 -2.362791 -7.233488 150 149 89
-0.859504 -2.798898 -8.568595 153 150 89
-0.797844 -2.738544 -8.383827 154 149 90
-0.734908 -2.666667 -8.163779 153 149 87
-0.692913 -2.666667 -8.163779 152 148 84
-0.852234 -3.491409 -10.688660 151 146 85
-6.468750 -4.031250 -12.150000 128 115 89
-6.406250 -4.031250 -12.150000 135 119 93
-5.948718 -3.780220 -11.393406 136 119 93
-5.890110 -3.780220 -11.393406 133 114 90
-5.940299 -3.850746 -11.605969 134 113 93
-5.837037 -3.822222 -11.520000 134 113 95
-5.820896 -3.850746 -11.605969 137 112 95
-5.739777 -3.836431 -11.562825 140 113 96
-5.968750 -4.031250 -12.150000 140 111 94
-4.805555 -3.583333 -10.799999 111 93 77
-4.750000 -3.583333 -10.799999 110 92 77
-4.694445 -3.583333 -10.799999 112 93 80
-4.606896 -3.558621 -10.725517 114 95 84
-4.400000 -3.440000 -10.368000 115 96 87
-4.289474 -3.394737 -10.231579 110 92 84
-4.236842 -3.394737 -10.231579 109 91 82
-4.211921 -3.417218 -10.299337 111 95 82
-4.200669 -3.451505 -10.402676 111 97 82
-4.305555 -3.583333 -10.799999 109 96 81
-2.048140 -2.258206 -6.806127 145 137 102
-2.013129 -2.258206 -6.806127 145 140 102
-2.017857 -2.303571 -6.942857 145 140 98
-3.072664 -3.570934 -10.762630 145 140 90
-2.812287 -3.522184 -10.615700 151 143 83
-2.748299 -3.510204 -10.579592 151 142 85
-1.854801 -2.416862 -7.284309 151 143 89
-1.800464 -2.394432 -7.216705 150 144 91
-1.763341 -2.394432 -7.216705 148 145 90
-0.791444 -2.759358 -8.316577 154 146 90
-0.732984 -2.701571 -8.142408 155 147 88
-0.687500 -2.687500 -8.099999 152 144 84
-0.644156 -2.680520 -8.078960 150 140 83
-6.343750 -4.093750 -12.150000 135 118 92
-5.911765 -3.852941 -11.435294 133 114 91
-5.940299 -3.910448 -11.605969 133 114 93
-5.880597 -3.910448 -11.605969 134 114 95
-6.093750 -4.093750 -12.150000 136 114 97
-6.031250 -4.093750 -12.150000 140 115 98
-4.750000 -3.638889 -10.799999 113 96 81
-4.694445 -3.638889 -10.799999 112 95 80
-4.468227 -3.505017 -10.402676 113 96 82
-4.342105 -3.447368 -10.231579 116 100 87
-4.247557 -3.413681 -10.131596 114 96 86
-4.195440 -3.413681 -10.131596 112 94 83
-4.143322 -3.413681 -10.131596 113 96 82
-4.200669 -3.505017 -10.402676 111 96 80
-4.305555 -3.638889 -10.799999 107 94 77
-4.468750 -4.093750 -12.150000 105 90 79
-4.406250 -4.093750 -12.150000 104 90 76
-2.129870 -2.268398 -6.732467 127 105 90
-2.037895 -2.206316 -6.548210 130 110 94
-2.056155 -2.263499 -6.717927 136 121 100
-2.034783 -2.278261 -6.761739 136 126 99
-2.013129 -2.293217 -6.806127 139 132 100
-3.323529 -3.852941 -11.435294 144 138 100
-3.010753 -3.756272 -11.148387 146 135 82
-2.841379 -3.613793 -10.725517 152 140 90
-2.748299 -3.564626 -10.579592 152 139 91
-2.605263 -3.447368 -10.231579 150 139 93
-1.800464 -2.431555 -7.216705 149 141 94
-1.779860 -2.454333 -7.284309 146 141 92
-0.732984 -2.743455 -8.142408 150 138 84
-0.687500 -2.729167 -8.099999 149 137 82
-0.640827 -2.708010 -8.037210 147 134 83
-0.582915 -2.633166 -7.815075 146 132 86
-6.343750 -4.156250 -12.150000 133 116 88
-6.281250 -4.156250 -12.150000 133 115 89
-6.218750 -4.156250 -12.150000 135 117 93
-6.156250 -4.156250 -12.150000 132 113 91
-4.409241 -3.511551 -10.265347 113 96 78
-4.342105 -3.500000 -10.231579 115 99 81
-4.220065 -3.443366 -10.066019 116 98 84
-4.181818 -3.454545 -10.098701 114 97 83
-4.143322 -3.465798 -10.131596 113 96 81
-4.305555 -3.694444 -10.799999 108 94 76
-4.264808 -3.707317 -10.837630 105 92 76
-4.209059 -3.707317 -10.837630 107 94 82
-4.468750 -4.156250 -12.150000 105 88 78
-2.075949 -2.244726 -6.562025 109 84 73
-2.037895 -2.240000 -6.548210 107 86 75
-2.008439 -2.244726 -6.562025 116 98 84
-2.034783 -2.313044 -6.761739 118 105 85
-3.139932 -3.631399 -10.615700 124 115 86
-3.323529 -3.911765 -11.435294 131 123 88
-2.953405 -3.813620 -11.148387 151 135 92
-2.786207 -3.668966 -10.725517 151 135 94
-2.693877 -3.619048 -10.579592 148 135 96
-2.578073 -3.534884 -10.333554 146 136 97
-1.093750 -4.156250 -12.150000 146 130 82
-0.691099 -2.785340 -8.142408 142 126 78
-0.639175 -2.742268 -8.016495 141 123 79
-0.582915 -2.673367 -7.815075 136 118 80
-0.542714 -2.673367 -7.815075 131 113 81
-6.531250 -4.218750 -12.150000 131 118 92
-6.468750 -4.218750 -12.150000 130 115 87
-6.406250 -4.218750 -12.150000 131 114 84
-6.343750 -4.218750 -12.150000 131 115 84
-6.281250 -4.218750 -12.150000 132 115 86
-6.218750 -4.218750 -12.150000 137 120 94
-6.156250 -4.218750 -12.150000 136 118 93
-6.093750 -4.218750 -12.150000 132 114 89
-6.031250 -4.218750 -12.150000 135 116 92
-5.968750 -4.218750 -12.150000 138 120 95
-5.906250 -4.218750 -12.150000 138 120 95
-5.218750 -4.218750 -12.150000 117 98 75
-4.962406 -4.060150 -11.693233 113 95 72
-4.776557 -3.956044 -11.393406 112 95 77
-3.657817 -3.185841 -9.175220 109 93 74
-4.000000 -3.529412 -10.164705 106 92 75
-3.934853 -3.517915 -10.131596 109 95 80
-3.830619 -3.517915 -10.131596 109 92 83
-3.741935 -3.483871 -10.033548 108 88 81
-2.559284 -2.416107 -6.958389 107 86 78
-4.406250 -4.218750 -12.150000 107 87 76
-2.111588 -2.317597 -6.674678 108 84 73
-2.068376 -2.307692 -6.646153 107 85 75
-2.060606 -2.337662 -6.732467 107 88 76
-2.061674 -2.378855 -6.851101 102 86 68
-3.139932 -3.686007 -10.615700 102 92 62
-3.323529 -3.970588 -11.435294 106 97 62
-0.649215 -2.827225 -8.142408 119 98 61
-0.582915 -2.713568 -7.815075 111 90 59
-0.542714 -2.713568 -7.815075 106 84 60
-0.534759 -2.887701 -8.316577 103 82 64
0.576890 -0.938314 -2.702346 131 117 94
0.587727 -0.933449 -2.688332 136 119 96
0.792308 -1.038462 -2.990769 140 125 107
-6.531250 -4.281250 -12.150000 130 117 91
-6.468750 -4.281250 -12.150000 131 116 88
-6.406250 -4.281250 -12.150000 131 115 85
-6.343750 -4.281250 -12.150000 131 114 84
-6.281250 -4.281250 -12.150000 131 114 85
-6.218750 -4.281250 -12.150000 135 118 92
-6.156250 -4.281250 -12.150000 138 121 96
-6.093750 -4.281250 -12.150000 137 120 94
-6.031250 -4.281250 -12.150000 134 117 91
-5.968750 -4.281250 -12.150000 136 119 94
-5.906250 -4.281250 -12.150000 137 121 94
-5.843750 -4.281250 -12.150000 135 119 92
-5.781250 -4.281250 -12.150000 134 118 90
-5.718750 -4.281250 -12.150000 134 118 91
-5.656250 -4.281250 -12.150000 134 118 91
-5.593750 -4.281250 -12.150000 135 116 93
-5.531250 -4.281250 -12.150000 136 115 94
-3.573487 -3.158501 -8.963689 107 91 71
-4.000000 -3.581699 -10.164705 104 89 69
-3.947712 -3.581699 -10.164705 108 93 75
-3.895425 -3.581699 -10.164705 111 95 79
-3.843137 -3.581699 -10.164705 112 93 81
-2.512249 -2.440980 -6.927394 110 87 76
-2.476615 -2.440980 -6.927394 110 88 76
-2.069565 -2.382609 -6.761739 109 88 73
-2.034783 -2.382609 -6.761739 104 86 65
-2.000000 -2.382609 -6.761739 103 90 59
-2.944625 -3.570033 -10.131596 102 91 56
-2.892508 -3.570033 -10.131596 101 88 52
-0.635897 -2.810256 -7.975384 100 79 49
-0.581454 -2.746867 -7.795488 103 81 56
-0.541353 -2.746867 -7.795488 106 83 63
-0.524934 -2.876640 -8.163779 103 81 65
0.576890 -0.952215 -2.702346 132 117 93
0.587727 -0.947277 -2.688332 137 118 95
0.601556 -0.947277 -2.688332 141 120 99
0.792308 -1.053846 -2.990769 140 126 109
-6.468750 -4.343750 -12.150000 128 112 89
-6.406250 -4.343750 -12.150000 130 113 88
-6.343750 -4.343750 -12.150000 132 115 90
-6.281250 -4.343750 -12.150000 132 115 90
-6.218750 -4.343750 -12.150000 133 116 93
-6.156250 -4.343750 -12.150000 135 119 96
-6.093750 -4.343750 -12.150000 137 119 96
-6.031250 -4.343750 -12.150000 136 118 94
-5.968750 -4.343750 -12.150000 135 118 94
-5.906250 -4.343750 -12.150000 135 119 93
-5.843750 -4.343750 -12.150000 135 119 92
-5.781250 -4.343750 -12.150000 133 117 90
-5.718750 -4.343750 -12.150000 134 116 89
-5.656250 -4.343750 -12.150000 136 117 90
-5.593750 -4.343750 -12.150000 137 117 91
-5.531250 -4.343750 -12.150000 138 116 92
-4.025316 -3.518987 -9.843038 114 96 76
-3.829268 -3.390244 -9.482926 113 96 74
-3.594203 -3.223188 -9.015652 109 93 71
-4.000000 -3.633987 -10.164705 105 90 67
-3.947712 -3.633987 -10.164705 108 92 72
-3.895425 -3.633987 -10.164705 112 96 77
-3.843137 -3.633987 -10.164705 112 95 80
-2.512249 -2.476615 -6.927394 109 88 76
-2.460177 -2.460177 -6.881416 111 89 76
-2.398249 -2.433260 -6.806127 111 90 76
-3.750000 -3.861111 -10.799999 110 90 75
-3.361111 -3.861111 -10.799999 111 88 75
-2.096916 -2.449339 -6.851101 109 87 71
-2.039216 -2.422658 -6.776470 106 86 64
-2.000000 -2.417391 -6.761739 105 90 59
-2.000000 -2.460177 -6.881416 105 91 57
-2.792453 -3.496855 -9.781132 105 89 57
-0.581454 -2.786968 -7.795488 104 82 60
-0.533333 -2.745679 -7.680000 106 85 65
-0.495050 -2.752475 -7.699010 103 82 65
0.590791 -0.966116 -2.702346 138 118 94
0.601036 -0.960276 -2.686010 140 119 98
0.605957 -0.946383 -2.647149 142 121 103
0.617472 -0.943172 -2.638168 143 123 107
0.627848 -0.938397 -2.624810 142 124 107
0.644068 -0.942373 -2.635932 140 123 106
0.747170 -1.049057 -2.934340 140 124 108
0.765152 -1.053030 -2.945454 140 124 108
0.780303 -1.053030 -2.945454 138 124 110
-6.468750 -4.406250 -12.150000 129 112 95
-6.406250 -4.406250 -12.150000 132 114 95
-6.343750 -4.406250 -12.150000 134 116 96
-6.218750 -4.406250 -12.150000 135 118 100
-6.156250 -4.406250 -12.150000 135 118 101
-6.093750 -4.406250 -12.150000 137 118 101
-6.031250 -4.406250 -12.150000 139 120 100
-5.968750 -4.406250 -12.150000 135 119 97
-5.906250 -4.406250 -12.150000 135 119 95
-5.843750 -4.406250 -12.150000 135 118 95
-5.781250 -4.406250 -12.150000 132 115 91
-5.718750 -4.406250 -12.150000 134 115 90
-5.656250 -4.406250 -12.150000 137 116 91
-5.593750 -4.406250 -12.150000 137 118 92
-5.531250 -4.406250 -12.150000 136 117 92
-5.468750 -4.406250 -12.150000 138 118 92
-5.406250 -4.406250 -12.150000 137 117 91
-4.025316 -3.569620 -9.843038 116 98 76
-3.829268 -3.439024 -9.482926 116 99 76
-4.025974 -3.662338 -10.098701 114 98 74
-4.013115 -3.698361 -10.198032 111 94 71
-3.947712 -3.686275 -10.164705 109 93 70
-3.895425 -3.686275 -10.164705 112 96 74
-3.843137 -3.686275 -10.164705 113 98 80
-2.487696 -2.523490 -6.958389 109 89 75
-2.451902 -2.523490 -6.958389 109 89 74
-3.227586 -3.889655 -10.725517 107 86 63
-2.035398 -2.495575 -6.881416 106 89 59
-2.017857 -2.517857 -6.942857 106 90 59
-2.792453 -3.547170 -9.781132 102 86 57
0.601036 -0.974093 -2.686010 139 119 97
0.606474 -0.960818 -2.649404 140 119 101
0.617472 -0.956743 -2.638168 141 122 106
0.627848 -0.951899 -2.624810 143 125 108
0.644068 -0.955932 -2.635932 143 126 108
0.657627 -0.955932 -2.635932 140 123 106
0.666667 -0.949495 -2.618182 139 122 107
0.680708 -0.950295 -2.620388 139 123 109
0.766667 -0.940000 -2.592000 141 120 100
0.780000 -0.940000 -2.592000 142 123 101
0.794658 -0.941569 -2.596327 139 122 100
-6.468750 -4.468750 -12.150000 133 115 101
-6.142322 -4.284644 -11.649438 134 116 99
-6.014815 -4.237037 -11.520000 132 115 96
-5.955555 -4.237037 -11.520000 132 117 98
-6.218750 -4.468750 -12.150000 133 117 101
-6.156250 -4.468750 -12.150000 133 118 103
-6.093750 -4.468750 -12.150000 136 120 103
-6.031250 -4.468750 -12.150000 136 119 100
-5.968750 -4.468750 -12.150000 136 120 97
-5.906250 -4.468750 -12.150000 137 121 98
-5.843750 -4.468750 -12.150000 134 118 96
-5.781250 -4.468750 -12.150000 132 115 93
-5.718750 -4.468750 -12.150000 134 115 91
-5.656250 -4.468750 -12.150000 137 116 90
-5.593750 -4.468750 -12.150000 137 118 91
-5.531250 -4.468750 -12.150000 136 117 90
-5.166052 -4.221402 -11.477490 136 118 92
-5.107011 -4.221402 -11.477490 136 118 93
-5.104477 -4.268657 -11.605969 136 117 95
-5.044776 -4.268657 -11.605969 137 119 99
-4.985075 -4.268657 -11.605969 134 116 99
-3.852761 -3.509202 -9.541104 123 104 79
-3.594203 -3.315942 -9.015652 120 102 77
-3.974026 -3.714286 -10.098701 116 99 74
-3.947712 -3.738562 -10.164705 109 93 70
-3.882736 -3.726384 -10.131596 109 93 71
-3.830619 -3.726384 -10.131596 111 96 76
-3.778502 -3.726384 -10.131596 110 94 77
-3.740614 -3.904437 -10.615700 106 90 73
-3.305556 -3.972222 -10.799999 113 89 69
-3.227586 -3.944828 -10.725517 110 88 63
-2.243902 -2.790244 -7.586341 107 88 58
-2.237624 -2.831683 -7.699010 107 90 59
-2.198020 -2.831683 -7.699010 104 87 60
0.666667 -0.962963 -2.618182 138 122 106
0.680708 -0.963774 -2.620388 138 122 107
0.753333 -0.953333 -2.592000 138 117 103
0.766667 -0.953333 -2.592000 138 117 99
0.780000 -0.953333 -2.592000 140 119 98
0.794658 -0.954925 -2.596327 139 121 100
-6.531250 -4.531250 -12.150000 131 112 101
-6.468750 -4.531250 -12.150000 132 113 100
-6.074074 -4.296296 -11.520000 130 113 97
-6.014815 -4.296296 -11.520000 129 113 94
-5.911765 -4.264706 -11.435294 131 115 96
-5.940299 -4.328358 -11.605969 132 116 98
-6.156250 -4.531250 -12.150000 134 118 101
-6.093750 -4.531250 -12.150000 134 118 100
-6.031250 -4.531250 -12.150000 134 117 96
-5.968750 -4.531250 -12.150000 137 121 97
-5.906250 -4.531250 -12.150000 138 122 98
-5.843750 -4.531250 -12.150000 135 119 96
-5.781250 -4.531250 -12.150000 135 117 95
-5.718750 -4.531250 -12.150000 135 116 90
-5.656250 -4.531250 -12.150000 135 116 86
-5.593750 -4.531250 -12.150000 137 118 87
-5.531250 -4.531250 -12.150000 137 118 88
-5.166052 -4.280443 -11.477490 134 116 88
-5.107011 -4.280443 -11.477490 133 116 90
-5.047970 -4.280443 -11.477490 135 117 93
-4.898551 -4.202899 -11.269565 136 119 98
-4.737589 -4.113475 -11.029787 136 119 100
-3.960133 -3.853821 -10.333554 117 101 78
-3.843137 -3.790850 -10.164705 113 96 76
-4.041812 -4.041812 -10.837630 110 93 76
-4.000000 -4.055944 -10.875525 111 93 78
-3.944056 -4.055944 -10.875525 110 92 79
-2.124711 -2.678984 -7.183372 109 90 59
-2.237624 -2.871287 -7.699010 106 88 57
-2.165854 -2.829268 -7.586341 106 88 61
0.671186 -0.983051 -2.635932 138 122 106
0.678992 -0.974790 -2.613781 137 121 106
0.760943 -0.976431 -2.618182 141 122 108
0.768588 -0.969089 -2.598496 138 119 100
0.780000 -0.966667 -2.592000 137 118 97
0.794658 -0.968280 -2.596327 138 121 100
-6.531250 -4.593750 -12.150000 129 112 100
-6.468750 -4.593750 -12.150000 128 111 98
-6.406250 -4.593750 -12.150000 127 110 97
-6.343750 -4.593750 -12.150000 130 112 98
-5.955555 -4.355556 -11.520000 132 113 97
-5.940299 -4.388060 -11.605969 135 114 97
-6.156250 -4.593750 -12.150000 136 115 96
-5.968750 -4.593750 -12.150000 136 120 96
-5.906250 -4.593750 -12.150000 136 120 95
-5.843750 -4.593750 -12.150000 136 120 97
-5.781250 -4.593750 -12.150000 138 121 98
-5.718750 -4.593750 -12.150000 136 119 93
-5.656250 -4.593750 -12.150000 136 117 87
-5.593750 -4.593750 -12.150000 137 120 88
-5.531250 -4.593750 -12.150000 139 122 90
-5.468750 -4.593750 -12.150000 136 119 88
-4.956522 -4.260870 -11.269565 134 117 90
-4.794326 -4.170213 -11.029787 136 119 94
-4.737589 -4.170213 -11.029787 137 121 97
-4.296296 -4.355556 -11.520000 117 100 81
-4.014035 -4.126316 -10.913684 116 98 83
-3.944056 -4.111888 -10.875525 115 97 83
-2.132118 -2.678816 -7.085194 109 89 61
-2.243902 -2.868293 -7.586341 109 91 58
-2.323907 -3.023136 -7.995887 106 90 56
-2.165854 -2.868293 -7.586341 107 90 60
-2.241645 -3.023136 -7.995887 107 91 66
-3.040591 -4.339483 -11.477490 104 93 65
-2.825279 -4.371747 -11.562825 106 90 79
-2.745388 -4.339483 -11.477490 104 85 76
-2.676471 -4.323529 -11.435294 99 81 64
-2.561151 -4.230216 -11.188489 100 84 60
0.671186 -0.996610 -2.635932 142 126 110
0.716318 -0.984100 -2.602845 138 124 114
0.729707 -0.984100 -2.602845 139 123 115
0.741855 -0.982456 -2.598496 140 122 114
0.759026 -0.987406 -2.611587 142 124 111
0.768588 -0.982456 -2.598496 141 124 107
0.780000 -0.980000 -2.592000 138 121 102
0.792673 -0.979184 -2.589842 137 121 102
0.806667 -0.980000 -2.592000 137 122 105
0.819317 -0.979184 -2.589842 138 123 109
6.000000 -4.388060 -11.605969 138 125 109
6.059701 -4.388060 -11.605969 138 125 108
6.096654 -4.371747 -11.562825 137 125 107
6.156134 -4.371747 -11.562825 136 124 106
-6.531250 -4.656250 -12.150000 129 113 96
-6.468750 -4.656250 -12.150000 128 111 97
-6.343750 -4.656250 -12.150000 135 114 104
-6.281250 -4.656250 -12.150000 134 111 100
-6.218750 -4.656250 -12.150000 136 111 96
-6.156250 -4.656250 -12.150000 138 112 94
-5.906250 -4.656250 -12.150000 135 119 96
-5.843750 -4.656250 -12.150000 139 122 102
-5.781250 -4.656250 -12.150000 139 122 103
-5.464151 -4.498113 -11.737358 134 116 93
-5.383459 -4.481203 -11.693233 135 118 90
-5.343396 -4.498113 -11.737358 139 122 92
-5.468750 -4.656250 -12.150000 137 121 91
-5.029412 -4.382353 -11.435294 135 118 90
-4.794326 -4.226950 -11.029787 134 117 91
-4.737589 -4.226950 -11.029787 137 120 95
-4.870849 -4.398524 -11.477490 139 122 97
-4.531250 -4.656250 -12.150000 124 107 88
-4.468750 -4.656250 -12.150000 123 106 89
-4.177778 -4.414815 -11.520000 123 106 90
-3.056479 -3.960133 -10.333554 112 96 61
-3.531250 -4.656250 -12.150000 108 92 55
-2.950166 -3.960133 -10.333554 107 91 56
-3.290566 -4.498113 -11.737358 106 90 62
-3.230189 -4.498113 -11.737358 109 93 69
-3.040591 -4.398524 -11.477490 106 95 66
-2.825279 -4.431227 -11.562825 108 92 82
-2.735294 -4.382353 -11.435294 104 86 78
-2.647273 -4.334546 -11.310545 102 84 69
-2.561151 -4.287770 -11.188489 104 87 65
-2.521739 -4.318841 -11.269565 108 92 70
-2.463768 -4.318841 -11.269565 109 92 75
-2.405797 -4.318841 -11.269565 109 90 77
-2.347826 -4.318841 -11.269565 111 91 80
0.657627 -1.010170 -2.635932 141 125 109
0.665546 -1.001681 -2.613781 141 127 110
0.678421 -1.000840 -2.611587 143 129 113
0.824000 -1.192000 -3.110400 141 127 113
0.705882 -1.001681 -2.613781 137 124 112
0.715121 -0.995823 -2.598496 136 123 112
0.729707 -0.997490 -2.602845 136 121 113
0.741855 -0.995823 -2.598496 135 120 111
0.757754 -0.999162 -2.607209 138 122 110
0.766667 -0.993333 -2.592000 141 125 110
0.778055 -0.990856 -2.585536 140 124 108
0.791355 -0.990856 -2.585536 138 123 106
0.805995 -0.992506 -2.589842 136 123 106
6.218750 -4.656250 -12.150000 140 125 112
6.281250 -4.656250 -12.150000 139 126 110
6.037175 -4.431227 -11.562825 140 127 109
6.096654 -4.431227 -11.562825 139 128 110
6.156134 -4.431227 -11.562825 137 126 108
6.262172 -4.464419 -11.649438 138 126 108
-6.531250 -4.718750 -12.150000 129 114 91
-6.468750 -4.718750 -12.150000 126 110 93
-6.343750 -4.718750 -12.150000 135 114 106
-6.281250 -4.718750 -12.150000 135 110 103
-6.218750 -4.718750 -12.150000 134 106 97
-6.156250 -4.718750 -12.150000 137 108 95
-6.093750 -4.718750 -12.150000 132 110 88
-5.968750 -4.718750 -12.150000 133 116 91
-5.906250 -4.718750 -12.150000 135 118 97
-4.412979 -3.563422 -9.175220 138 120 105
-5.781250 -4.718750 -12.150000 138 120 110
-5.718750 -4.718750 -12.150000 139 119 110
-4.309524 -3.595238 -9.257143 135 116 104
-5.207273 -4.392727 -11.310545 131 113 93
-5.323308 -4.541353 -11.693233 134 116 92
-5.263158 -4.541353 -11.693233 135 118 94
-4.613333 -4.026667 -10.368000 135 118 93
-4.560000 -4.026667 -10.368000 135 118 93
-4.794326 -4.283688 -11.029787 133 116 91
-4.737589 -4.283688 -11.029787 136 118 94
-4.474576 -4.094915 -10.543729 139 122 97
-4.275410 -3.960656 -10.198032 140 122 99
-4.395905 -4.122867 -10.615700 140 122 101
-4.531250 -4.718750 -12.150000 131 114 96
-4.468750 -4.718750 -12.150000 129 112 95
-4.406250 -4.718750 -12.150000 128 111 94
-3.720280 -4.223776 -10.875525 127 111 100
-3.664336 -4.223776 -10.875525 128 108 102
-3.468750 -4.718750 -12.150000 109 93 57
-3.406250 -4.718750 -12.150000 108 91 60
-3.343750 -4.718750 -12.150000 109 92 67
-3.040591 -4.457564 -11.477490 108 96 69
-2.959707 -4.424909 -11.393406 105 96 65
-2.901099 -4.424909 -11.393406 105 94 69
-2.884758 -4.490706 -11.562825 106 93 78
-2.825279 -4.490706 -11.562825 109 93 83
-2.765799 -4.490706 -11.562825 107 89 80
-2.656934 -4.408759 -11.351825 104 87 71
-2.561151 -4.345324 -11.188489 105 89 67
-2.512635 -4.361011 -11.228881 107 90 69
-2.463768 -4.376812 -11.269565 107 90 73
-2.397112 -4.361011 -11.228881 110 91 76
-2.339350 -4.361011 -11.228881 111 92 78
0.840000 -1.208000 -3.110400 139 126 113
0.719328 -1.015126 -2.613781 136 124 112
0.730930 -1.012573 -2.607209 135 122 113
0.741235 -1.008347 -2.596327 135 121 112
0.757754 -1.012573 -2.607209 137 122 110
0.766028 -1.005828 -2.589842 139 125 110
0.778055 -1.004156 -2.585536 139 126 110
0.791355 -1.004156 -2.585536 137 125 108
6.218750 -4.718750 -12.150000 141 127 113
6.281250 -4.718750 -12.150000 141 128 111
6.343750 -4.718750 -12.150000 141 128 110
6.096654 -4.490706 -11.562825 140 128 110
6.202247 -4.524344 -11.649438 137 126 108
6.262172 -4.524344 -11.649438 137 125 107
-6.531250 -4.781250 -12.150000 128 112 89
-6.468750 -4.781250 -12.150000 124 108 90
-6.406250 -4.781250 -12.150000 127 109 97
-6.343750 -4.781250 -12.150000 132 112 103
-6.093750 -4.781250 -12.150000 132 109 87
-5.968750 -4.781250 -12.150000 130 113 87
-4.434018 -3.589443 -9.121408 134 117 97
-4.336232 -3.547826 -9.015652 135 117 105
-4.265130 -3.527378 -8.963689 136 117 111
-4.293255 -3.589443 -9.121408 138 119 113
-4.221574 -3.568513 -9.068221 137 117 109
-4.187134 -3.578947 -9.094736 132 114 100
-4.438871 -3.836991 -9.750470 131 114 95
-4.388715 -3.836991 -9.750470 133 115 95
-4.338558 -3.836991 -9.750470 134 116 95
-4.248447 -3.801242 -9.659627 135 117 94
-4.583051 -4.149153 -10.543729 135 117 94
-4.528813 -4.149153 -10.543729 137 119 94
-4.474576 -4.149153 -10.543729 138 121 95
-4.261438 -4.000000 -10.164705 138 121 96
-4.222951 -4.013115 -10.198032 140 122 100
-4.531250 -4.781250 -12.150000 137 120 103
-4.406250 -4.781250 -12.150000 132 116 98
-3.325000 -3.825000 -9.719999 133 116 104
-3.601375 -4.206185 -10.688660 131 111 105
-3.468750 -4.781250 -12.150000 122 103 69
-3.406250 -4.781250 -12.150000 120 100 71
-2.901099 -4.483517 -11.393406 108 95 75
-2.852941 -4.500000 -11.435294 112 95 81
-2.794118 -4.500000 -11.435294 113 95 84
-2.765799 -4.550186 -11.562825 112 93 80
-2.666667 -4.483517 -11.393406 108 89 74
-2.608059 -4.483517 -11.393406 106 89 69
-2.540146 -4.467153 -11.351825 105 88 68
-2.463768 -4.434783 -11.269565 106 90 71
-2.397112 -4.418773 -11.228881 109 91 74
-2.339350 -4.418773 -11.228881 109 91 75
0.675192 -1.043478 -2.651662 137 125 107
0.685908 -1.039049 -2.640407 138 127 108
0.702472 -1.043478 -2.651662 139 128 111
0.710660 -1.035533 -2.631472 139 128 113
0.720539 -1.030303 -2.618182 137 126 113
0.732773 -1.028571 -2.613781 136 124 113
0.744342 -1.025985 -2.607209 137 124 113
0.757754 -1.025985 -2.607209 138 124 112
0.767947 -1.021703 -2.596327 138 125 110
0.779351 -1.019151 -2.589842 139 126 110
0.800000 -1.028571 -2.613781 137 125 109
3.051383 -2.418972 -6.147036 143 125 116
3.083004 -2.418972 -6.147036 142 125 116
6.281250 -4.781250 -12.150000 141 127 112
6.343750 -4.781250 -12.150000 141 128 111
6.406250 -4.781250 -12.150000 141 128 111
6.468750 -4.781250 -12.150000 138 126 109
6.262172 -4.584270 -11.649438 136 123 107
6.345865 -4.601504 -11.693233 137 122 106
-6.531250 -4.843750 -12.150000 130 111 95
-6.468750 -4.843750 -12.150000 127 109 95
-6.406250 -4.843750 -12.150000 128 111 98
-6.343750 -4.843750 -12.150000 128 110 98
-6.281250 -4.843750 -12.150000 130 109 96
-6.093750 -4.843750 -12.150000 133 110 89
-4.784810 -3.924051 -9.843038 132 115 94
-4.361516 -3.615160 -9.068221 133 116 101
-4.289855 -3.594203 -9.015652 136 117 107
-4.268221 -3.615160 -9.068221 137 118 109
-4.197102 -3.594203 -9.015652 135 117 104
-4.187134 -3.625731 -9.094736 135 117 102
-4.895105 -4.335664 -10.875525 131 114 96
-4.325000 -3.875000 -9.719999 132 114 95
-4.071429 -3.690476 -9.257143 133 115 93
-4.845878 -4.444445 -11.148387 136 118 94
-4.788530 -4.444445 -11.148387 137 118 92
-4.817518 -4.525548 -11.351825 137 119 92
-4.496552 -4.275862 -10.725517 137 119 93
-4.441380 -4.275862 -10.725517 138 120 96
-3.779310 -4.275862 -10.725517 137 121 99
-3.375000 -3.875000 -9.719999 136 120 101
-3.185629 -3.712575 -9.312574 134 118 104
-3.137725 -3.712575 -9.312574 135 117 107
-3.235110 -3.887147 -9.750470 134 115 106
-2.901099 -4.542125 -11.393406 122 105 88
-2.722807 -4.350877 -10.913684 127 107 93
-2.076503 -3.387978 -8.498361 124 103 90
-1.968254 -3.280423 -8.228571 119 98 84
-2.666667 -4.542125 -11.393406 116 96 80
-2.617647 -4.558824 -11.435294 111 92 73
-2.549451 -4.542125 -11.393406 108 91 72
-2.481752 -4.525548 -11.351825 111 95 76
-2.405797 -4.492754 -11.269565 113 95 75
-2.356364 -4.509091 -11.310545 111 92 74
0.653749 -1.044650 -2.620388 137 126 108
0.667791 -1.045531 -2.622597 135 124 105
0.683587 -1.049069 -2.631472 136 125 106
0.699491 -1.052632 -2.640407 136 126 108
0.708263 -1.045531 -2.622597 137 127 111
0.720539 -1.043771 -2.618182 138 129 114
0.732158 -1.041142 -2.611587 140 128 115
0.744342 -1.039397 -2.607209 140 126 115
0.757754 -1.039397 -2.607209 140 125 112
0.767306 -1.034195 -2.594162 139 124 110
0.783920 -1.038526 -2.605025 139 126 110
2.944882 -2.440945 -6.122835 141 123 110
2.982249 -2.445759 -6.134911 142 124 112
3.019763 -2.450593 -6.147036 144 126 115
3.045365 -2.445759 -6.134911 143 125 115
3.064833 -2.436149 -6.110806 141 124 114
3.084149 -2.426615 -6.086888 140 123 113
5.852941 -4.558824 -11.435294 139 125 113
5.933579 -4.575646 -11.477490 139 125 112
6.343750 -4.843750 -12.150000 139 126 111
6.406250 -4.843750 -12.150000 140 126 111
6.468750 -4.843750 -12.150000 140 124 111
6.285714 -4.661654 -11.693233 140 125 110
6.345865 -4.661654 -11.693233 141 125 109
-6.531250 -4.906250 -12.150000 132 110 103
-6.468750 -4.906250 -12.150000 129 110 101
-6.406250 -4.906250 -12.150000 129 112 100
-6.343750 -4.906250 -12.150000 129 113 97
-4.492493 -3.771772 -9.340540 131 115 96
-4.444445 -3.771772 -9.340540 134 116 100
-4.293255 -3.683285 -9.121408 134 117 99
-4.246334 -3.683285 -9.121408 134 118 97
-4.211765 -3.694118 -9.148235 136 119 101
-4.895105 -4.391608 -10.875525 131 114 95
-4.325000 -3.925000 -9.719999 132 115 94
-4.047337 -3.715976 -9.202367 134 116 92
-4.934307 -4.583941 -11.351825 135 118 91
-4.875912 -4.583941 -11.351825 137 119 90
-4.817518 -4.583941 -11.351825 137 118 89
-4.543554 -4.376307 -10.837630 136 119 91
-4.441380 -4.331035 -10.725517 137 119 94
-3.617162 -4.145215 -10.265347 135 120 95
-3.312883 -3.852761 -9.541104 133 118 97
-3.166667 -3.738095 -9.257143 137 121 104
-3.082353 -3.694118 -9.148235 139 123 109
-3.080597 -3.749254 -9.284776 138 121 107
-3.184953 -3.937304 -9.750470 135 118 103
-2.778947 -4.407018 -10.913684 133 113 96
-2.120219 -3.431694 -8.498361 133 111 96
-2.065217 -3.413043 -8.452173 130 108 93
-1.984000 -3.349333 -8.294400 127 105 90
-2.666667 -4.600733 -11.393406 126 104 88
-2.617647 -4.617647 -11.435294 119 99 82
-2.549451 -4.600733 -11.393406 117 100 82
-2.500000 -4.617647 -11.435294 119 102 84
-2.432235 -4.600733 -11.393406 118 101 80
-2.218750 -4.906250 -12.150000 113 93 83
-2.075188 -4.721805 -11.693233 112 92 85
-2.093750 -4.906250 -12.150000 114 94 88
0.609589 -1.075342 -2.663014 140 129 109
0.622222 -1.073504 -2.658462 140 129 109
0.629442 -1.062606 -2.631472 138 127 109
0.640270 -1.058130 -2.620388 137 126 108
0.651553 -1.054576 -2.611587 137 126 107
0.664987 -1.054576 -2.611587 135 124 104
0.678421 -1.054576 -2.611587 134 124 103
0.694772 -1.059022 -2.622597 134 126 106
0.706476 -1.056350 -2.615980 134 125 107
0.718724 -1.054576 -2.611587 135 125 108
0.729707 -1.051046 -2.602845 139 126 112
0.740617 -1.047540 -2.594162 140 126 112
0.753333 -1.046667 -2.592000 140 125 110
0.767306 -1.047540 -2.594162 140 124 109
3.650873 -3.132169 -7.756608 142 121 110
3.690773 -3.132169 -7.756608 142 123 110
3.022222 -2.537374 -6.283636 143 125 110
3.086869 -2.537374 -6.283636 143 125 112
6.007547 -4.739623 -11.737358 138 123 112
5.933579 -4.634686 -11.477490 137 123 111
6.059701 -4.686567 -11.605969 136 122 110
6.531250 -4.906250 -12.150000 142 124 112
6.593750 -4.906250 -12.150000 143 125 112
-6.531250 -4.968750 -12.150000 130 105 106
-6.468750 -4.968750 -12.150000 128 107 102
-6.406250 -4.968750 -12.150000 127 110 99
-6.343750 -4.968750 -12.150000 126 111 95
-6.281250 -4.968750 -12.150000 125 112 91
-6.218750 -4.968750 -12.150000 124 111 86
-6.156250 -4.968750 -12.150000 125 110 86
-5.420290 -4.608696 -11.269565 130 113 89
-5.138889 -4.416667 -10.799999 131 114 92
-4.396396 -3.819820 -9.340540 131 114 93
-4.903226 -4.559140 -11.148387 135 118 90
-5.007407 -4.711111 -11.520000 134 118 87
-4.948148 -4.711111 -11.520000 137 120 88
-4.817518 -4.642336 -11.351825 137 120 88
-4.543554 -4.432056 -10.837630 134 118 88
-4.843750 -4.968750 -12.150000 140 119 98
-4.343750 -4.968750 -12.150000 140 124 95
-3.617162 -4.198020 -10.265347 138 123 95
-3.375000 -3.975000 -9.719999 137 122 96
-3.166667 -3.785714 -9.257143 136 120 99
-3.082353 -3.741176 -9.148235 137 120 104
-3.071429 -3.785714 -9.257143 138 121 107
-3.032836 -3.797015 -9.284776 136 119 104
-2.994012 -3.808383 -9.312574 135 117 97
-2.985507 -4.608696 -11.269565 138 114 99
-2.183784 -3.437838 -8.406487 138 117 98
-2.152174 -3.456522 -8.452173 140 117 97
-2.108696 -3.456522 -8.452173 139 115 95
-2.065217 -3.456522 -8.452173 138 114 97
-2.010811 -3.437838 -8.406487 136 113 99
-2.281250 -4.968750 -12.150000 127 106 93
-2.135338 -4.781955 -11.693233 122 103 92
-2.044445 -4.711111 -11.520000 121 102 95
-1.977860 -4.693727 -11.477490 124 105 100
-1.416894 -3.465940 -8.475204 126 106 100
0.606474 -1.083475 -2.649404 140 129 108
0.620102 -1.083475 -2.649404 139 128 109
0.630508 -1.077966 -2.635932 138 127 109
0.712946 -1.193246 -2.917824 137 126 108
0.653199 -1.070707 -2.618182 137 126 105
0.664987 -1.068010 -2.611587 137 127 103
0.675585 -1.063545 -2.600669 137 127 102
0.688963 -1.063545 -2.600669 135 126 101
0.701754 -1.062657 -2.598496 134 124 101
0.713928 -1.060884 -2.594162 135 124 102
0.727273 -1.060884 -2.594162 138 126 106
0.740000 -1.060000 -2.592000 141 127 108
0.753333 -1.060000 -2.592000 141 125 106
0.766667 -1.060000 -2.592000 142 125 106
3.182979 -2.706383 -6.617872 141 123 108
3.217021 -2.706383 -6.617872 141 123 109
3.251064 -2.706383 -6.617872 141 122 108
6.093750 -4.968750 -12.150000 140 123 110
6.156250 -4.968750 -12.150000 141 125 113
5.940299 -4.746269 -11.605969 139 124 113
5.933579 -4.693727 -11.477490 135 122 110
5.992620 -4.693727 -11.477490 134 121 110
6.029412 -4.676471 -11.435294 138 122 112
3.435685 -2.639004 -6.453112 142 124 115
3.377778 -2.569697 -6.283636 145 124 116
-6.531250 -5.031250 -12.150000 131 106 106
-6.468750 -5.031250 -12.150000 130 109 103
-6.406250 -5.031250 -12.150000 127 110 98
-6.343750 -5.031250 -12.150000 123 109 92
-6.281250 -5.031250 -12.150000 122 109 88
-6.218750 -5.031250 -12.150000 121 110 84
-6.156250 -5.031250 -12.150000 123 110 86
-6.093750 -5.031250 -12.150000 127 111 92
-6.031250 -5.031250 -12.150000 127 110 93
-5.968750 -5.031250 -12.150000 128 110 90
-5.906250 -5.031250 -12.150000 129 111 89
-5.843750 -5.031250 -12.150000 130 112 89
-5.343750 -5.031250 -12.150000 135 120 89
-5.044776 -4.805970 -11.605969 134 119 85
-4.966543 -4.788104 -11.562825 136 121 87
-4.907063 -4.788104 -11.562825 135 120 87
-5.093750 -5.031250 -12.150000 132 116 86
-5.031250 -5.031250 -12.150000 134 117 89
-4.968750 -5.031250 -12.150000 138 119 92
-4.906250 -5.031250 -12.150000 140 120 94
-4.679245 -4.860377 -11.737358 141 121 96
-4.781250 -5.031250 -12.150000 142 121 100
-4.404494 -4.823970 -11.649438 137 118 103
-4.312268 -4.788104 -11.562825 138 119 102
-4.468750 -5.031250 -12.150000 138 120 97
-4.406250 -5.031250 -12.150000 139 122 92
-4.343750 -5.031250 -12.150000 136 120 88
-3.506494 -4.181818 -10.098701 137 122 94
-3.214502 -3.891239 -9.396978 135 119 95
-3.119048 -3.833333 -9.257143 137 120 102
-3.089820 -3.856287 -9.312574 139 122 107
-3.041916 -3.856287 -9.312574 138 120 104
-3.300330 -4.250825 -10.265347 137 119 99
-3.218750 -5.031250 -12.150000 141 115 98
-3.156250 -5.031250 -12.150000 140 116 95
-3.093750 -5.031250 -12.150000 143 118 96
-2.108696 -3.500000 -8.452173 144 119 97
-2.065217 -3.500000 -8.452173 144 119 101
-2.021739 -3.500000 -8.452173 143 119 104
-2.323529 -4.735294 -11.435294 136 115 95
-2.248175 -4.700730 -11.351825 135 113 94
-2.189781 -4.700730 -11.351825 134 112 95
-2.147059 -4.735294 -11.435294 135 113 99
-2.103704 -4.770370 -11.520000 131 112 101
-2.029412 -4.735294 -11.435294 129 111 104
-1.949091 -4.683636 -11.310545 131 112 107
-1.416894 -3.509537 -8.475204 134 114 107
0.607509 -1.098976 -2.653925 140 128 107
0.621160 -1.098976 -2.653925 139 127 108
0.697936 -1.208255 -2.917824 140 127 110
0.716981 -1.215094 -2.934340 139 127 110
0.727955 -1.208255 -2.917824 139 126 107
