ply
        format ascii 1.0
        element vertex 11708
        property float x
        property float y
        property float z
        property uchar red
        property uchar green
        property uchar blue
        end_header
-6.625000 2.468750 -12.500000 227 212 208
-6.562500 2.468750 -12.500000 228 210 207
-6.500000 2.468750 -12.500000 228 209 207
-6.437500 2.468750 -12.500000 226 208 206
-6.158491 2.384906 -12.075472 227 209 206
-6.312500 2.468750 -12.500000 228 211 206
-6.250000 2.468750 -12.500000 229 211 205
-6.187500 2.468750 -12.500000 227 211 203
-5.020689 2.179310 -11.034483 220 212 204
-4.965517 2.179310 -11.034483 221 212 202
-0.614815 0.292593 -1.481481 28 17 15
-0.607126 0.292457 -1.480796 14 8 6
-0.583144 0.287927 -1.457859 2 2 3
-0.568090 0.284045 -1.438202 2 1 3
-0.558140 0.282648 -1.431127 2 1 2
-0.550984 0.282648 -1.431127 4 1 2
-0.543100 0.282269 -1.429209 8 1 2
-0.535714 0.282143 -1.428571 10 3 3
-0.526690 0.281139 -1.423488 12 5 7
-0.518650 0.280639 -1.420959 21 12 16
-0.511091 0.280390 -1.419698 21 10 14
-0.522388 0.294776 -1.492537 10 4 5
-0.514925 0.294776 -1.492537 4 2 1
-0.564901 0.328141 -1.661475 1 1 0
-0.407643 0.287534 -1.455869 0 0 0
-0.398010 0.285844 -1.447309 0 0 0
-0.385714 0.282143 -1.428571 0 0 0
-0.379079 0.282521 -1.430487 0 0 0
-0.364299 0.287796 -1.457195 0 0 1
-0.357013 0.287796 -1.457195 0 0 1
-0.345946 0.284685 -1.441441 0 0 1
-0.335116 0.281640 -1.426025 0 0 0
-0.325808 0.279770 -1.416556 0 0 1
-0.314685 0.276224 -1.398601 0 0 0
-0.307692 0.276224 -1.398601 0 0 0
-0.300699 0.276224 -1.398601 0 0 0
-0.295775 0.278169 -1.408451 0 0 0
-0.289855 0.286232 -1.449275 0 0 0
-0.274648 0.278169 -1.408451 0 0 0
-0.265734 0.276224 -1.398601 0 0 0
-0.259991 0.277558 -1.405358 1 0 0
-0.253521 0.278169 -1.408451 3 1 1
-0.247788 0.279646 -1.415929 4 1 2
-0.235714 0.282143 -1.428571 2 1 3
-0.227961 0.281389 -1.424755 1 1 2
-0.219956 0.280266 -1.419069 0 0 1
-0.212295 0.279522 -1.415303 0 0 0
-0.204405 0.278414 -1.409692 0 0 0
-0.196837 0.277680 -1.405975 0 0 0
-0.188811 0.276224 -1.398601 0 0 0
-0.181818 0.276224 -1.398601 0 0 0
-0.174825 0.276224 -1.398601 3 1 1
-0.308257 0.579817 -2.935780 138 133 134
-0.294659 0.581952 -2.946593 189 189 184
-0.278899 0.579817 -2.935780 200 202 192
-0.265193 0.581952 -2.946593 205 205 197
-0.109589 2.164384 -10.958904 206 204 199
0.310680 2.045307 -10.355987 205 204 194
0.410256 2.315018 -11.721612 204 204 195
0.436860 2.156996 -10.921502 203 203 198
0.277210 0.280764 -1.421590 198 194 185
0.283688 0.280142 -1.418440 196 192 186
0.291945 0.281264 -1.424121 194 192 187
0.297740 0.280018 -1.417811 192 192 187
0.304694 0.279894 -1.417183 194 192 186
0.311367 0.279522 -1.415303 195 191 185
0.318021 0.279152 -1.413428 195 191 185
0.325376 0.279399 -1.414677 194 190 185
0.332449 0.279399 -1.414677 195 190 185
0.339523 0.279399 -1.414677 196 191 183
0.347518 0.280142 -1.418440 198 191 184
0.354139 0.279770 -1.416556 199 190 185
0.361222 0.279770 -1.416556 196 190 186
0.368305 0.279770 -1.416556 194 189 186
5.594406 2.209790 -11.188811 188 175 165
5.833935 2.281589 -11.552346 185 173 164
5.807829 2.249110 -11.387900 184 174 165
5.928058 2.273381 -11.510792 184 175 166
5.942857 2.257143 -11.428572 184 174 165
6.268657 2.358209 -11.940298 185 173 165
6.625000 2.468750 -12.500000 182 170 164
6.937500 2.468750 -12.500000 184 170 163
7.000000 2.468750 -12.500000 183 169 164
7.062500 2.468750 -12.500000 183 168 163
-6.812500 2.406250 -12.500000 229 210 209
-6.750000 2.406250 -12.500000 227 210 208
-6.687500 2.406250 -12.500000 224 210 207
-6.625000 2.406250 -12.500000 224 212 207
-6.562500 2.406250 -12.500000 227 212 207
-6.500000 2.406250 -12.500000 228 210 207
-6.437500 2.406250 -12.500000 229 210 208
-6.066915 2.289963 -11.895911 229 212 207
-6.007435 2.289963 -11.895911 228 212 204
-5.970149 2.298507 -11.940298 228 211 203
-5.932584 2.307116 -11.985019 229 211 204
-5.872659 2.307116 -11.985019 228 213 205
-5.055555 2.138889 -11.111111 222 213 206
-0.614530 0.285053 -1.480796 23 12 10
-0.597722 0.280638 -1.457859 14 8 7
-0.583144 0.280638 -1.457859 1 1 1
-0.568090 0.276854 -1.438202 0 0 1
-0.558140 0.275492 -1.431127 1 1 1
-0.550984 0.275492 -1.431127 3 1 2
-0.543342 0.275246 -1.429848 7 1 3
-0.535475 0.274877 -1.427934 6 1 2
-0.526690 0.274021 -1.423488 9 3 6
-0.518650 0.273535 -1.420959 20 11 15
-0.593220 0.326271 -1.694915 10 2 3
-0.573209 0.319834 -1.661475 5 1 1
-0.405246 0.278607 -1.447309 2 0 0
-0.398010 0.278607 -1.447309 2 0 0
-0.382470 0.272687 -1.416556 1 1 1
-0.375387 0.272687 -1.416556 2 1 0
-0.357175 0.280638 -1.457859 1 0 1
-0.345946 0.277477 -1.441441 1 1 1
-0.335265 0.274632 -1.426661 1 1 1
-0.326241 0.273050 -1.418440 0 0 2
-0.318443 0.272446 -1.415303 0 0 1
-0.309451 0.270769 -1.406593 0 0 0
-0.300699 0.269231 -1.398601 0 0 0
-0.294737 0.270175 -1.403509 0 0 0
-0.289497 0.271845 -1.412180 0 0 0
-0.282436 0.271845 -1.412180 0 0 0
-0.274890 0.271366 -1.409692 0 0 0
-0.267370 0.270888 -1.407212 0 0 0
-0.260563 0.271127 -1.408451 1 1 1
-0.253521 0.271127 -1.408451 1 0 1
-0.246805 0.271485 -1.410313 1 0 0
-0.239648 0.271366 -1.409692 1 0 1
-0.235085 0.274265 -1.424755 2 1 2
-0.227051 0.273171 -1.419069 2 2 2
-0.219956 0.273171 -1.419069 1 2 1
-0.212202 0.272325 -1.414677 1 1 1
-0.204405 0.271366 -1.409692 1 1 1
-0.195804 0.269231 -1.398601 0 0 0
-0.188811 0.269231 -1.398601 0 0 0
-0.181818 0.269231 -1.398601 0 0 0
-0.174825 0.269231 -1.398601 1 0 0
-0.305732 0.560510 -2.911738 87 83 83
-0.291174 0.560510 -2.911738 179 178 172
-0.276113 0.559491 -2.906449 202 201 192
-0.261580 0.559491 -2.906449 206 203 196
-0.247048 0.559491 -2.906449 206 204 198
-0.358974 1.974359 -10.256411 207 204 198
-0.151899 1.949367 -10.126582 205 205 199
-0.101266 1.949367 -10.126582 206 204 198
0.468864 2.256410 -11.721612 203 203 195
0.562500 2.406250 -12.500000 201 202 195
0.280449 0.276854 -1.438202 198 195 186
0.287640 0.276854 -1.438202 197 195 187
0.294699 0.276730 -1.437556 194 194 186
0.299065 0.274143 -1.424121 193 194 186
0.305100 0.273171 -1.419069 193 193 186
0.312195 0.273171 -1.419069 194 192 184
0.319149 0.273050 -1.418440 194 191 183
0.326241 0.273050 -1.418440 193 190 185
0.332743 0.272566 -1.415929 194 189 185
0.339823 0.272566 -1.415929 197 190 183
0.347518 0.273050 -1.418440 199 191 183
0.353982 0.272566 -1.415929 200 191 186
0.361062 0.272566 -1.415929 196 190 186
0.368142 0.272566 -1.415929 194 189 185
6.187500 2.406250 -12.500000 186 176 164
5.797101 2.231884 -11.594203 189 176 167
5.855072 2.231884 -11.594203 187 174 167
5.807829 2.192171 -11.387900 185 173 167
5.928058 2.215827 -11.510792 186 175 167
5.942857 2.200000 -11.428572 185 174 166
6.562500 2.406250 -12.500000 185 173 165
6.625000 2.406250 -12.500000 184 171 166
6.687500 2.406250 -12.500000 184 172 168
6.937500 2.406250 -12.500000 184 170 164
7.000000 2.406250 -12.500000 184 170 166
7.062500 2.406250 -12.500000 184 170 164
-6.812500 2.343750 -12.500000 231 212 209
-6.750000 2.343750 -12.500000 230 212 209
-6.687500 2.343750 -12.500000 226 211 207
-6.625000 2.343750 -12.500000 225 213 205
-6.562500 2.343750 -12.500000 225 212 204
-6.500000 2.343750 -12.500000 228 211 206
-6.437500 2.343750 -12.500000 230 212 207
-6.066915 2.230483 -11.895911 228 212 206
-6.007435 2.230483 -11.895911 225 212 203
-5.970149 2.238806 -11.940298 226 212 204
-5.910448 2.238806 -11.940298 228 212 205
-5.828996 2.230483 -11.895911 228 213 207
-6.062500 2.343750 -12.500000 226 212 208
-0.615667 0.274851 -1.465873 26 17 12
-0.602814 0.272356 -1.452565 20 13 9
-0.590725 0.270149 -1.440792 10 6 4
-0.566816 0.269058 -1.434978 1 1 1
-0.558389 0.268456 -1.431767 1 1 1
-0.550984 0.268336 -1.431127 2 1 1
-0.542857 0.267857 -1.428571 5 2 3
-0.535475 0.267738 -1.427934 4 1 2
-0.527864 0.267499 -1.426661 8 3 5
-0.521661 0.267977 -1.429209 14 7 9
-0.584746 0.317797 -1.694915 5 2 1
-0.543562 0.328767 -1.753425 5 1 0
-0.529571 0.325556 -1.736300 8 0 0
-0.397163 0.265957 -1.418440 13 3 3
-0.389208 0.265369 -1.415303 14 3 3
-0.380617 0.264317 -1.409692 13 3 2
-0.373239 0.264085 -1.408451 15 3 2
-0.373626 0.274725 -1.465201 11 2 1
-0.358974 0.274725 -1.465201 5 1 1
-0.344549 0.269179 -1.435621 3 1 2
-0.336165 0.268216 -1.430487 2 1 1
-0.327986 0.267380 -1.426025 1 1 2
-0.318725 0.265604 -1.416556 1 0 1
-0.309859 0.264085 -1.408451 0 0 0
-0.302418 0.263736 -1.406593 0 0 0
-0.294737 0.263158 -1.403509 1 1 1
-0.288987 0.264317 -1.409692 1 1 1
-0.282935 0.265252 -1.414677 0 0 0
-0.275862 0.265252 -1.414677 0 0 0
-0.268789 0.265252 -1.414677 0 0 0
-0.261947 0.265487 -1.415929 0 0 0
-0.254867 0.265487 -1.415929 0 0 0
-0.247788 0.265487 -1.415929 0 0 0
-0.240495 0.265252 -1.414677 0 0 0
-0.233628 0.265487 -1.415929 1 0 1
-0.226549 0.265487 -1.415929 2 1 2
-0.219275 0.265252 -1.414677 5 5 5
-0.212014 0.265018 -1.413428 6 5 5
-0.204405 0.264317 -1.409692 2 2 2
-0.195804 0.262238 -1.398601 0 0 0
-0.188811 0.262238 -1.398601 0 0 0
-0.181818 0.262238 -1.398601 0 0 0
-0.175516 0.263273 -1.404125 1 0 0
-0.290645 0.544959 -2.906449 153 149 144
-0.275612 0.543971 -2.901179 196 192 184
-0.260163 0.542005 -2.890696 202 199 192
-0.245709 0.542005 -2.890696 205 203 196
-0.231884 0.543478 -2.898551 206 204 196
-0.307692 1.648352 -8.791209 205 205 197
-0.149068 1.863354 -9.937888 204 204 197
-0.099379 1.863354 -9.937888 204 204 198
0.500000 2.343750 -12.500000 203 203 195
0.562500 2.343750 -12.500000 200 202 194
0.265948 0.269542 -1.437556 198 193 187
0.273136 0.269542 -1.437556 196 194 186
0.280955 0.270149 -1.440792 194 194 186
0.288548 0.270514 -1.442741 195 195 187
0.295362 0.270149 -1.440792 193 194 185
0.302158 0.269784 -1.438849 194 193 186
0.310609 0.270880 -1.444695 194 192 185
0.314286 0.267857 -1.428571 194 192 184
0.319716 0.266430 -1.420959 194 192 184
0.326676 0.266312 -1.420328 194 190 184
0.333777 0.266312 -1.420328 195 190 184
0.340728 0.266193 -1.419698 196 191 182
0.347826 0.266193 -1.419698 198 190 183
0.354610 0.265957 -1.418440 199 190 186
0.361702 0.265957 -1.418440 196 190 187
6.187500 2.343750 -12.500000 186 175 164
6.250000 2.343750 -12.500000 189 176 167
6.312500 2.343750 -12.500000 188 174 170
6.135338 2.255639 -12.030075 185 171 168
6.437500 2.343750 -12.500000 186 173 168
6.500000 2.343750 -12.500000 183 173 165
6.562500 2.343750 -12.500000 184 173 166
6.625000 2.343750 -12.500000 184 170 166
6.875000 2.343750 -12.500000 184 170 163
6.388489 2.158273 -11.510792 184 170 164
6.222222 2.083333 -11.111111 184 171 164
6.277778 2.083333 -11.111111 182 170 162
6.422535 2.112676 -11.267606 185 170 162
-6.812500 2.281250 -12.500000 228 212 206
-6.750000 2.281250 -12.500000 229 212 206
-6.687500 2.281250 -12.500000 229 211 207
-6.625000 2.281250 -12.500000 227 211 205
-6.562500 2.281250 -12.500000 226 212 204
-6.500000 2.281250 -12.500000 228 214 205
-6.149254 2.179105 -11.940298 230 214 207
-6.066915 2.171004 -11.895911 227 212 205
-6.007435 2.171004 -11.895911 224 212 204
-5.970149 2.179105 -11.940298 225 212 204
-5.932584 2.187266 -11.985019 225 212 204
-5.764706 2.147059 -11.764706 225 211 207
-5.705883 2.147059 -11.764706 226 211 209
-0.610077 0.265093 -1.452565 21 14 10
-0.599278 0.263538 -1.444043 13 8 4
-0.587550 0.261532 -1.433050 8 3 2
-0.577540 0.260250 -1.426025 6 1 3
-0.570410 0.260250 -1.426025 4 1 2
-0.564790 0.260947 -1.429848 1 0 1
-0.557641 0.260947 -1.429848 1 0 1
-0.550246 0.260831 -1.429209 2 1 1
-0.542615 0.260598 -1.427934 3 2 2
-0.535236 0.260482 -1.427297 3 1 1
-0.528571 0.260714 -1.428571 9 4 4
-0.588413 0.294207 -1.612091 11 6 5
-0.601709 0.332764 -1.823362 1 1 1
-0.589904 0.331254 -1.815088 1 1 0
-0.580828 0.331254 -1.815088 3 1 0
-0.543562 0.320000 -1.753425 11 0 0
-0.528997 0.316531 -1.734417 20 1 1
-0.518639 0.315505 -1.728795 28 3 2
-0.397163 0.258865 -1.418440 48 21 18
-0.387665 0.257269 -1.409692 49 20 18
-0.380617 0.257269 -1.409692 48 19 17
-0.370629 0.255245 -1.398601 49 20 16
-0.363636 0.255245 -1.398601 48 19 16
-0.371754 0.266059 -1.457859 41 16 13
-0.337371 0.262001 -1.435621 9 1 1
-0.328132 0.260366 -1.426661 6 0 0
-0.318866 0.258636 -1.417183 5 0 0
-0.311367 0.258293 -1.415303 5 0 1
-0.302152 0.256478 -1.405358 4 1 1
-0.295125 0.256478 -1.405358 3 0 1
-0.289497 0.257723 -1.412180 2 0 1
-0.283186 0.258407 -1.415929 1 0 1
-0.276106 0.258407 -1.415929 0 0 0
-0.268789 0.258179 -1.414677 0 0 0
-0.261715 0.258179 -1.414677 0 0 0
-0.253856 0.257382 -1.410313 0 0 0
-0.247788 0.258407 -1.415929 0 0 0
-0.240389 0.258065 -1.414052 0 0 0
-0.232599 0.257269 -1.409692 0 0 1
-0.225352 0.257042 -1.408451 1 1 2
-0.218118 0.256816 -1.407212 4 3 5
-0.211082 0.256816 -1.407212 8 7 10
-0.203777 0.256478 -1.405358 5 4 6
-0.195804 0.255245 -1.398601 1 1 1
-0.188811 0.255245 -1.398601 0 0 0
-0.181818 0.255245 -1.398601 0 0 0
-0.174825 0.255245 -1.398601 1 0 0
-0.167832 0.255245 -1.398601 2 0 1
-0.275612 0.529465 -2.901179 184 181 174
-0.259693 0.526601 -2.885482 203 202 196
-0.245045 0.526126 -2.882883 203 204 196
-0.231047 0.527076 -2.888087 204 206 195
-0.382090 1.743284 -9.552238 203 205 198
-0.307692 1.604396 -8.791209 205 205 198
-0.158940 1.933775 -10.596026 201 203 195
-0.105960 1.933775 -10.596026 202 204 196
0.474074 2.162963 -11.851851 205 204 198
0.533333 2.162963 -11.851851 201 202 196
0.599251 2.187266 -11.985019 200 202 194
0.265948 0.262354 -1.437556 198 193 187
0.273136 0.262354 -1.437556 197 194 187
0.280955 0.262945 -1.440792 194 194 186
0.288548 0.263300 -1.442741 194 194 187
0.295362 0.262945 -1.440792 193 193 186
0.303386 0.263657 -1.444695 195 193 187
0.311877 0.264733 -1.450589 195 192 187
0.319130 0.264733 -1.450589 196 193 187
0.322004 0.261181 -1.431127 195 192 186
0.328571 0.260714 -1.428571 194 191 183
0.333925 0.259325 -1.420959 195 192 183
0.347826 0.259095 -1.419698 196 191 184
0.354610 0.258865 -1.418440 196 191 186
0.360106 0.257723 -1.412180 195 190 187
6.187500 2.281250 -12.500000 184 175 166
6.250000 2.281250 -12.500000 186 175 167
6.312500 2.281250 -12.500000 186 173 169
6.375000 2.281250 -12.500000 184 171 168
6.437500 2.281250 -12.500000 184 173 167
6.500000 2.281250 -12.500000 181 172 164
6.562500 2.281250 -12.500000 183 172 167
6.625000 2.281250 -12.500000 185 171 167
6.687500 2.281250 -12.500000 186 171 167
6.750000 2.281250 -12.500000 184 171 167
6.812500 2.281250 -12.500000 184 170 167
6.875000 2.281250 -12.500000 184 169 165
6.411552 2.108303 -11.552346 183 169 162
6.287719 2.049123 -11.228070 183 170 161
6.277778 2.027778 -11.111111 182 170 161
6.400000 2.049123 -11.228070 185 170 163
-6.750000 2.218750 -12.500000 227 212 205
-6.687500 2.218750 -12.500000 230 212 207
-6.625000 2.218750 -12.500000 229 211 208
-6.562500 2.218750 -12.500000 225 211 207
-6.208955 2.119403 -11.940298 225 213 206
-6.103703 2.103704 -11.851851 226 213 204
-6.022140 2.095941 -11.808118 226 212 206
-5.941176 2.088235 -11.764706 225 212 206
-5.947956 2.111524 -11.895911 226 212 205
-6.187500 2.218750 -12.500000 226 213 206
-5.785978 2.095941 -11.808118 225 211 207
-5.623188 2.057971 -11.594203 226 211 208
-5.796227 2.143396 -12.075472 227 212 207
-0.625575 0.261270 -1.471941 35 23 21
-0.614822 0.259835 -1.463861 21 11 10
-0.602814 0.257830 -1.452565 16 8 6
-0.570410 0.253119 -1.426025 4 1 2
-0.563029 0.253007 -1.425390 1 0 2
-0.557392 0.253685 -1.429209 2 0 1
-0.549509 0.253345 -1.427297 3 1 1
-0.542857 0.253571 -1.428571 2 1 1
-0.535714 0.253571 -1.428571 3 2 1
-0.528808 0.253685 -1.429209 9 4 4
-0.742530 0.361093 -2.034329 9 4 3
-0.601709 0.323647 -1.823362 1 1 1
-0.592593 0.323647 -1.823362 2 1 0
-0.541780 0.310213 -1.747679 23 2 2
-0.529571 0.308193 -1.736300 37 7 5
-0.518639 0.306861 -1.728795 55 18 12
-0.507254 0.305212 -1.719506 75 36 27
-0.490059 0.305212 -1.719506 97 60 51
-0.458333 0.295833 -1.666667 98 57 50
-0.380617 0.250220 -1.409692 93 51 46
-0.370629 0.248252 -1.398601 88 46 41
-0.363636 0.248252 -1.398601 82 42 36
-0.373626 0.260073 -1.465201 76 39 32
-0.328571 0.253571 -1.428571 27 7 4
-0.318866 0.251550 -1.417183 23 4 3
-0.311504 0.251327 -1.415929 23 5 4
-0.302152 0.249451 -1.405358 18 4 3
-0.295385 0.249670 -1.406593 14 1 2
-0.290523 0.251550 -1.417183 11 1 2
-0.283437 0.251550 -1.417183 7 1 1
-0.276106 0.251327 -1.415929 4 0 0
-0.269027 0.251327 -1.415929 3 0 0
-0.260563 0.250000 -1.408451 2 0 0
-0.253744 0.250220 -1.409692 1 0 0
-0.247788 0.251327 -1.415929 0 0 0
-0.240708 0.251327 -1.415929 0 0 0
-0.232394 0.250000 -1.408451 0 0 1
-0.224857 0.249451 -1.405358 0 0 2
-0.217544 0.249123 -1.403509 2 1 4
-0.210526 0.249123 -1.403509 6 4 8
-0.203509 0.249123 -1.403509 8 4 7
-0.195804 0.248252 -1.398601 5 3 4
-0.188811 0.248252 -1.398601 1 1 1
-0.181818 0.248252 -1.398601 1 0 1
-0.174825 0.248252 -1.398601 1 0 0
-0.167832 0.248252 -1.398601 2 0 0
-0.160839 0.248252 -1.398601 8 2 2
-0.153846 0.248252 -1.398601 13 7 7
-0.258760 0.510332 -2.875112 197 197 191
-0.242640 0.506690 -2.854594 202 203 197
-0.230216 0.510791 -2.877698 203 205 197
-0.382090 1.695522 -9.552238 204 206 198
-0.334328 1.695522 -9.552238 206 206 198
-0.187500 2.218750 -12.500000 201 204 197
-0.105960 1.880795 -10.596026 201 204 197
-0.052117 1.850163 -10.423452 201 203 197
0.470588 2.088235 -11.764706 205 203 198
0.529412 2.088235 -11.764706 203 203 197
0.599251 2.127341 -11.985019 200 201 194
0.258760 0.255166 -1.437556 200 194 190
0.265948 0.255166 -1.437556 199 194 188
0.271429 0.253571 -1.428571 199 196 187
0.280955 0.255741 -1.440792 196 196 185
0.304624 0.257480 -1.450589 195 192 187
0.313440 0.258770 -1.457859 195 193 187
0.319130 0.257480 -1.450589 194 193 187
0.322004 0.254025 -1.431127 193 192 185
0.326821 0.252220 -1.420959 193 190 182
0.333925 0.252220 -1.420959 196 191 184
0.349532 0.253232 -1.426661 196 192 185
0.354925 0.251996 -1.419698 195 190 185
0.359155 0.250000 -1.408451 195 190 186
6.187500 2.218750 -12.500000 183 175 168
6.250000 2.218750 -12.500000 184 174 167
6.312500 2.218750 -12.500000 185 173 168
6.375000 2.218750 -12.500000 184 172 168
6.437500 2.218750 -12.500000 183 173 166
6.500000 2.218750 -12.500000 182 172 164
6.562500 2.218750 -12.500000 183 171 167
6.625000 2.218750 -12.500000 186 171 168
6.460377 2.143396 -12.075472 187 171 167
6.447761 2.119403 -11.940298 185 170 167
6.483272 2.111524 -11.895911 185 171 168
6.400000 2.065454 -11.636364 185 170 166
6.297873 2.014184 -11.347518 184 169 163
6.287719 1.992983 -11.228070 184 171 162
6.277778 1.972222 -11.111111 185 171 162
6.355401 1.979094 -11.149826 187 171 164
6.478873 2.000000 -11.267606 184 169 164
6.823529 2.088235 -11.764706 184 168 164
-6.750000 2.156250 -12.500000 228 214 206
-6.687500 2.156250 -12.500000 231 213 207
-6.625000 2.156250 -12.500000 229 212 208
-6.562500 2.156250 -12.500000 225 212 209
-6.500000 2.156250 -12.500000 224 214 207
-6.103703 2.044445 -11.851851 223 213 204
-6.022140 2.036900 -11.808118 225 213 206
-5.941176 2.029412 -11.764706 227 212 208
-6.250000 2.156250 -12.500000 228 211 208
-6.187500 2.156250 -12.500000 229 212 207
-6.125000 2.156250 -12.500000 227 210 208
-6.062500 2.156250 -12.500000 226 210 209
-6.000000 2.156250 -12.500000 227 211 209
-5.937500 2.156250 -12.500000 227 212 209
-0.786582 0.319260 -1.850781 29 15 16
-0.777328 0.319260 -1.850781 18 8 9
-0.783943 0.325856 -1.889020 16 8 8
-0.774498 0.325856 -1.889020 10 4 4
-0.765053 0.325856 -1.889020 6 2 3
-0.570410 0.245989 -1.426025 3 1 2
-0.560532 0.244789 -1.419069 2 1 2
-0.553437 0.244789 -1.419069 2 1 2
-0.549509 0.246209 -1.427297 2 1 2
-0.543342 0.246649 -1.429848 1 0 1
-0.536193 0.246649 -1.429848 6 2 1
-0.611174 0.314709 -1.824401 0 0 0
-0.598979 0.313103 -1.815088 1 0 0
-0.588568 0.312394 -1.810979 4 0 0
-0.577552 0.311337 -1.804851 13 1 0
-0.568207 0.311161 -1.803833 23 2 1
-0.541780 0.301475 -1.747679 36 7 4
-0.528711 0.299025 -1.733478 55 18 10
-0.515852 0.296615 -1.719506 82 40 26
-0.504543 0.295029 -1.710315 106 62 47
-0.495197 0.294557 -1.707577 121 78 63
-0.483563 0.292683 -1.696713 128 86 71
-0.370629 0.241259 -1.398601 119 74 68
-0.363636 0.241259 -1.398601 110 67 60
-0.376384 0.254613 -1.476015 102 62 51
-0.371058 0.256030 -1.484230 104 66 54
-0.331382 0.248537 -1.440792 69 34 26
-0.318866 0.244464 -1.417183 58 23 16
-0.311780 0.244464 -1.417183 49 17 11
-0.304694 0.244464 -1.417183 42 12 8
-0.298932 0.245552 -1.423488 37 9 7
-0.291038 0.244898 -1.419698 33 8 6
-0.283437 0.244464 -1.417183 26 6 3
-0.276106 0.244248 -1.415929 21 3 2
-0.268670 0.243924 -1.414052 17 2 2
-0.260105 0.242531 -1.405975 10 1 1
-0.251748 0.241259 -1.398601 4 0 0
-0.245722 0.242211 -1.404125 1 0 0
-0.238911 0.242424 -1.405358 1 1 0
-0.231681 0.242211 -1.404125 0 0 0
-0.223776 0.241259 -1.398601 0 0 0
-0.216783 0.241259 -1.398601 2 1 2
-0.209790 0.241259 -1.398601 8 2 4
-0.202797 0.241259 -1.398601 10 2 4
-0.195804 0.241259 -1.398601 7 2 3
-0.188811 0.241259 -1.398601 1 1 1
-0.181818 0.241259 -1.398601 1 1 1
-0.174825 0.241259 -1.398601 1 1 0
-0.167832 0.241259 -1.398601 3 1 0
-0.160839 0.241259 -1.398601 8 2 4
-0.153846 0.241259 -1.398601 15 7 11
-0.256684 0.491979 -2.852050 177 174 171
-0.240283 0.487633 -2.826855 199 198 194
-0.228164 0.491979 -2.852050 202 204 198
-0.334328 1.647761 -9.552238 205 205 197
-0.286567 1.647761 -9.552238 205 205 198
-0.154839 1.780645 -10.322580 202 203 198
-0.103226 1.780645 -10.322580 202 203 198
-0.052117 1.798046 -10.423452 202 203 196
0.351648 1.516484 -8.791209 203 203 197
0.533333 2.044445 -11.851851 204 204 198
0.251572 0.247978 -1.437556 198 194 189
0.258760 0.247978 -1.437556 197 194 188
0.265352 0.247423 -1.434334 195 194 186
0.271186 0.246209 -1.427297 196 195 187
0.319130 0.250227 -1.450589 194 193 187
0.320142 0.245442 -1.422855 193 192 185
0.326241 0.244681 -1.418440 195 191 183
0.332449 0.244032 -1.414677 195 191 185
0.353045 0.243601 -1.412180 194 190 185
0.358681 0.242637 -1.406593 194 189 185
0.365714 0.242637 -1.406593 196 189 186
6.187500 2.156250 -12.500000 186 175 170
6.250000 2.156250 -12.500000 186 173 169
6.312500 2.156250 -12.500000 185 172 170
6.375000 2.156250 -12.500000 185 172 170
6.437500 2.156250 -12.500000 182 171 166
6.500000 2.156250 -12.500000 183 172 166
6.562500 2.156250 -12.500000 183 171 166
6.625000 2.156250 -12.500000 183 170 166
6.460377 2.083019 -12.075472 183 171 164
6.447761 2.059701 -11.940298 182 171 165
6.459259 2.044445 -11.851851 182 170 165
6.542751 2.052045 -11.895911 184 169 167
6.411552 1.992780 -11.552346 185 169 166
6.354610 1.957447 -11.347518 184 170 165
6.321678 1.930070 -11.188811 184 169 164
6.377623 1.930070 -11.188811 186 170 165
6.411150 1.923345 -11.149826 186 171 166
6.823529 2.029412 -11.764706 185 169 165
7.312500 2.156250 -12.500000 185 169 164
-6.750000 2.093750 -12.500000 230 214 207
-6.687500 2.093750 -12.500000 229 213 206
-6.625000 2.093750 -12.500000 227 212 206
-6.562500 2.093750 -12.500000 224 212 206
-6.255639 2.015038 -12.030075 222 212 204
-6.195489 2.015038 -12.030075 223 213 203
-6.000000 1.970588 -11.764706 226 213 206
-5.941176 1.970588 -11.764706 229 213 209
-6.250000 2.093750 -12.500000 229 211 207
-6.187500 2.093750 -12.500000 228 212 207
-6.125000 2.093750 -12.500000 226 211 208
-6.062500 2.093750 -12.500000 225 210 209
-6.000000 2.093750 -12.500000 225 211 211
-5.937500 2.093750 -12.500000 224 210 210
-5.875000 2.093750 -12.500000 223 210 209
-0.813884 0.320766 -1.915021 17 7 11
-0.804309 0.320766 -1.915021 9 3 5
-0.794734 0.320766 -1.915021 5 1 1
-0.780952 0.319048 -1.904762 2 0 0
-0.769596 0.318290 -1.900238 2 0 1
-0.759193 0.317912 -1.897983 4 1 2
-0.746163 0.316411 -1.889020 4 1 2
-0.740653 0.318101 -1.899110 3 1 1
-0.611174 0.305587 -1.824401 3 1 0
-0.597285 0.303167 -1.809955 5 0 0
-0.588235 0.303167 -1.809955 9 0 0
-0.576252 0.301632 -1.800788 21 1 1
-0.554151 0.294667 -1.759208 35 5 3
-0.540011 0.291780 -1.741971 54 16 12
-0.528997 0.290515 -1.734417 80 37 27
-0.515852 0.288017 -1.719506 105 59 44
-0.503735 0.286019 -1.707577 120 74 58
-0.492047 0.284199 -1.696713 131 86 70
-0.482540 0.283598 -1.693122 138 92 77
-0.472574 0.282700 -1.687764 139 94 79
-0.408000 0.268000 -1.600000 124 83 69
-0.400000 0.268000 -1.600000 127 88 74
-0.361624 0.247232 -1.476015 132 94 82
-0.351327 0.245197 -1.463861 131 94 84
-0.341043 0.243084 -1.451247 125 87 77
-0.331532 0.241441 -1.441441 110 70 59
-0.319716 0.238011 -1.420959 93 51 40
-0.312611 0.238011 -1.420959 79 37 28
-0.306050 0.238434 -1.423488 70 29 22
-0.302430 0.241224 -1.440144 63 23 17
-0.291815 0.238434 -1.423488 58 22 14
-0.283940 0.237799 -1.419698 53 20 12
-0.275862 0.236958 -1.414677 46 13 8
-0.268670 0.236854 -1.414052 38 9 7
-0.260105 0.235501 -1.405975 25 4 4
-0.251748 0.234266 -1.398601 13 1 1
-0.244755 0.234266 -1.398601 7 0 0
-0.237762 0.234266 -1.398601 4 0 0
-0.230769 0.234266 -1.398601 2 0 0
-0.223776 0.234266 -1.398601 0 0 0
-0.216783 0.234266 -1.398601 2 1 1
-0.210526 0.235088 -1.403509 7 2 3
-0.203509 0.235088 -1.403509 10 2 2
-0.195804 0.234266 -1.398601 8 1 2
-0.188811 0.234266 -1.398601 2 0 1
-0.181818 0.234266 -1.398601 0 1 1
-0.174825 0.234266 -1.398601 0 1 0
-0.167832 0.234266 -1.398601 1 0 0
-0.160839 0.234266 -1.398601 6 2 4
-0.155614 0.236958 -1.414677 11 6 11
-0.254417 0.473498 -2.826855 161 156 153
-0.239016 0.471002 -2.811951 196 194 191
-0.225551 0.472247 -2.819383 202 202 198
-0.337349 1.614458 -9.638555 203 205 199
-0.289157 1.614458 -9.638555 202 205 198
-0.133705 1.493036 -8.913649 203 205 199
-0.100000 1.675000 -10.000000 204 204 198
-0.051613 1.729032 -10.322580 204 202 195
0.306849 1.468493 -8.767123 201 201 197
0.350685 1.468493 -8.767123 201 201 196
0.229906 0.240683 -1.436911 197 197 187
0.236771 0.240359 -1.434978 196 196 186
0.244275 0.240683 -1.436911 198 197 189
0.251572 0.240791 -1.437556 199 196 189
0.258760 0.240791 -1.437556 199 195 187
0.265352 0.240251 -1.434334 197 194 186
0.272524 0.240251 -1.434334 196 194 187
0.280576 0.241007 -1.438849 194 194 188
0.316547 0.241007 -1.438849 194 192 189
0.320142 0.238328 -1.422855 195 191 186
0.326241 0.237589 -1.418440 196 192 185
0.331570 0.236332 -1.410935 194 191 185
0.338624 0.236332 -1.410935 193 189 185
0.346903 0.237168 -1.415929 195 191 185
0.359155 0.235915 -1.408451 194 189 185
6.187500 2.093750 -12.500000 186 174 171
6.250000 2.093750 -12.500000 187 173 170
6.312500 2.093750 -12.500000 188 173 170
6.375000 2.093750 -12.500000 187 174 169
6.195489 2.015038 -12.030075 184 173 167
6.232210 2.007491 -11.985019 183 173 167
6.562500 2.093750 -12.500000 182 173 166
6.625000 2.093750 -12.500000 182 172 164
6.411985 2.007491 -11.985019 182 172 164
6.447761 2.000000 -11.940298 181 171 164
6.459259 1.985185 -11.851851 181 170 165
6.321678 1.874126 -11.188811 182 168 162
6.355401 1.867596 -11.149826 183 170 162
6.411150 1.867596 -11.149826 185 171 164
7.250000 2.093750 -12.500000 183 169 163
7.562500 2.093750 -12.500000 183 168 165
-6.750000 2.031250 -12.500000 230 213 208
-6.687500 2.031250 -12.500000 227 212 206
-6.625000 2.031250 -12.500000 227 213 206
-6.562500 2.031250 -12.500000 226 212 206
-6.500000 2.031250 -12.500000 225 212 206
-6.195489 1.954887 -12.030075 225 212 206
-5.891697 1.877256 -11.552346 228 213 209
-6.098113 1.962264 -12.075472 230 212 209
-6.250000 2.031250 -12.500000 228 211 206
-6.187500 2.031250 -12.500000 226 212 205
-6.125000 2.031250 -12.500000 224 212 207
-6.062500 2.031250 -12.500000 223 210 208
-6.000000 2.031250 -12.500000 224 211 210
-0.816817 0.312312 -1.921922 14 5 7
-0.800954 0.309893 -1.907032 7 2 3
-0.790476 0.309524 -1.904762 2 0 1
-0.780952 0.309524 -1.904762 1 0 0
-0.769596 0.308789 -1.900238 1 0 1
-0.759644 0.308605 -1.899110 3 0 1
-0.750148 0.308605 -1.899110 5 1 1
-0.616092 0.298851 -1.839080 10 2 1
-0.602052 0.296465 -1.824401 14 1 1
-0.588235 0.294118 -1.809955 19 0 1
-0.575928 0.292463 -1.799775 31 3 3
-0.554151 0.285871 -1.759208 50 12 9
-0.545355 0.285871 -1.759208 78 33 26
-0.529571 0.282149 -1.736300 103 54 44
-0.516963 0.280022 -1.723210 117 68 55
-0.504274 0.277778 -1.709402 128 80 65
-0.494933 0.277333 -1.706667 136 89 73
-0.483051 0.275424 -1.694915 141 93 77
-0.472574 0.274262 -1.687764 141 94 80
-0.461700 0.272823 -1.678909 139 94 80
-0.449766 0.270692 -1.665799 140 95 82
-0.438469 0.268873 -1.654602 143 96 86
-0.392000 0.260000 -1.600000 143 103 91
-0.351327 0.237877 -1.463861 145 103 92
-0.317690 0.234657 -1.444043 112 68 57
-0.295230 0.234023 -1.440144 78 35 24
-0.284192 0.230906 -1.420959 72 32 19
-0.276351 0.230292 -1.417183 63 26 13
-0.268789 0.229885 -1.414677 53 18 11
-0.260449 0.228773 -1.407831 40 10 8
-0.251748 0.227273 -1.398601 28 4 4
-0.244755 0.227273 -1.398601 18 1 1
-0.237762 0.227273 -1.398601 11 0 0
-0.230769 0.227273 -1.398601 5 0 0
-0.223776 0.227273 -1.398601 1 0 0
-0.216783 0.227273 -1.398601 1 0 0
-0.210711 0.228270 -1.404741 3 1 2
-0.203598 0.228170 -1.404125 6 1 1
-0.195804 0.227273 -1.398601 7 1 1
-0.188811 0.227273 -1.398601 3 1 0
-0.181818 0.227273 -1.398601 0 0 0
-0.174825 0.227273 -1.398601 0 0 0
-0.167832 0.227273 -1.398601 1 0 1
-0.160839 0.227273 -1.398601 5 3 5
-0.155614 0.229885 -1.414677 8 5 9
-0.267606 0.457746 -2.816901 48 40 39
-0.253076 0.456942 -2.811951 145 141 138
-0.237555 0.454148 -2.794760 194 193 189
-0.223972 0.454943 -2.799650 201 202 198
-0.333333 1.547619 -9.523809 203 204 201
-0.285714 1.547619 -9.523809 202 204 200
-0.235294 1.529412 -9.411765 202 204 199
-0.188235 1.529412 -9.411765 202 205 199
-0.130790 1.416894 -8.719346 203 205 198
-0.086957 1.413043 -8.695652 203 204 197
0.411765 1.911765 -11.764706 204 202 199
0.361582 1.468927 -9.039548 202 201 197
0.529412 1.911765 -11.764706 200 200 196
0.451977 1.468927 -9.039548 199 200 195
0.497175 1.468927 -9.039548 201 202 195
0.228878 0.232454 -1.430487 199 196 189
0.236771 0.233184 -1.434978 195 194 188
0.244494 0.233708 -1.438202 197 196 190
0.265948 0.233603 -1.437556 198 196 189
0.273381 0.233813 -1.438849 197 195 189
0.281081 0.234234 -1.441441 195 194 189
0.288548 0.234445 -1.442741 194 193 188
0.316547 0.233813 -1.438849 196 192 190
0.320142 0.231214 -1.422855 196 192 187
0.327257 0.231214 -1.422855 194 192 186
0.331132 0.228974 -1.409071 195 192 185
0.338177 0.228974 -1.409071 196 191 185
0.346903 0.230089 -1.415929 196 191 185
0.361062 0.230089 -1.415929 195 189 185
6.250000 2.031250 -12.500000 187 173 169
6.312500 2.031250 -12.500000 188 174 168
6.375000 2.031250 -12.500000 187 175 167
6.058824 1.911765 -11.764706 185 175 167
6.095238 1.904762 -11.721612 183 173 168
6.199262 1.918819 -11.808118 182 173 166
6.625000 2.031250 -12.500000 183 173 166
6.340741 1.925926 -11.851851 183 173 166
6.471910 1.947566 -11.985019 184 172 168
6.598540 1.897810 -11.678832 180 169 162
6.355401 1.811847 -11.149826 181 170 162
6.411150 1.811847 -11.149826 183 170 162
6.535211 1.830986 -11.267606 184 171 163
6.857143 1.904762 -11.721612 181 168 163
7.562500 2.031250 -12.500000 184 167 167
-6.750000 1.968750 -12.500000 229 212 206
-6.687500 1.968750 -12.500000 228 212 206
-6.625000 1.968750 -12.500000 228 212 206
-6.562500 1.968750 -12.500000 228 211 207
-6.255639 1.894737 -12.030075 228 211 210
-6.149254 1.880597 -11.940298 227 211 209
-5.891697 1.819495 -11.552346 228 213 210
-6.250000 1.968750 -12.500000 227 212 207
-6.187500 1.968750 -12.500000 226 213 206
-6.125000 1.968750 -12.500000 225 213 207
-6.062500 1.968750 -12.500000 224 212 207
-6.000000 1.968750 -12.500000 224 212 208
-0.816817 0.302703 -1.921922 15 4 6
-0.803828 0.301435 -1.913876 8 1 3
-0.794258 0.301435 -1.913876 3 1 1
-0.780952 0.300000 -1.904762 1 0 0
-0.772809 0.300537 -1.908169 1 0 0
-0.763268 0.300537 -1.908169 1 0 0
-0.696897 0.300716 -1.909308 1 0 1
-0.575928 0.283465 -1.799775 42 6 5
-0.548721 0.274360 -1.741971 65 22 16
-0.520890 0.273467 -1.736300 126 76 60
-0.507254 0.270822 -1.719506 131 86 67
-0.495726 0.269231 -1.709402 136 91 71
-0.483051 0.266949 -1.694915 140 93 74
-0.470588 0.264706 -1.680672 140 92 77
-0.458572 0.262637 -1.667535 139 93 81
-0.448133 0.261411 -1.659751 142 94 85
-0.438469 0.260600 -1.654602 145 96 89
-0.284698 0.224199 -1.423488 87 43 29
-0.276841 0.223602 -1.419698 78 38 22
-0.268908 0.222910 -1.415303 68 29 17
-0.260563 0.221831 -1.408451 55 19 12
-0.251748 0.220280 -1.398601 41 10 8
-0.244755 0.220280 -1.398601 30 4 3
-0.237762 0.220280 -1.398601 21 3 3
-0.230769 0.220280 -1.398601 13 1 2
-0.223776 0.220280 -1.398601 6 0 1
-0.216783 0.220280 -1.398601 3 0 1
-0.209790 0.220280 -1.398601 1 0 1
-0.202797 0.220280 -1.398601 3 0 1
-0.195804 0.220280 -1.398601 5 1 1
-0.188811 0.220280 -1.398601 3 1 1
-0.181818 0.220280 -1.398601 1 1 0
-0.174825 0.220280 -1.398601 0 1 1
-0.167832 0.220280 -1.398601 2 1 2
-0.160839 0.220280 -1.398601 5 3 6
-0.154589 0.221344 -1.405358 5 3 6
-0.147627 0.221441 -1.405975 7 4 5
-0.141468 0.222812 -1.414677 11 6 6
-0.265502 0.440175 -2.794760 38 32 31
-0.251969 0.440945 -2.799650 137 135 132
-0.236934 0.439024 -2.787457 193 194 189
-0.222997 0.439024 -2.787457 202 203 198
-0.337349 1.518072 -9.638555 206 205 200
-0.285714 1.500000 -9.523809 203 203 199
-0.284698 1.793594 -11.387900 202 204 199
-0.222222 1.750000 -11.111111 204 205 200
-0.133705 1.403900 -8.913649 203 203 198
-0.086721 1.365854 -8.672087 202 204 197
0.470588 1.852941 -11.764706 201 201 198
0.529412 1.852941 -11.764706 202 201 199
0.448179 1.411765 -8.963586 201 199 196
0.492997 1.411765 -8.963586 202 201 196
0.524590 1.377049 -8.743170 202 201 195
0.218118 0.221636 -1.407212 199 195 189
0.225154 0.221636 -1.407212 198 195 190
0.237090 0.226313 -1.436911 196 194 190
0.244824 0.226823 -1.440144 196 196 191
0.274121 0.227232 -1.442741 197 195 189
0.281081 0.227027 -1.441441 197 194 189
0.288158 0.226925 -1.440792 197 194 188
0.295362 0.226925 -1.440792 197 193 188
0.316547 0.226619 -1.438849 196 192 188
0.316484 0.221538 -1.406593 195 191 187
0.323374 0.221441 -1.405975 194 192 187
0.330404 0.221441 -1.405975 195 192 186
0.338177 0.221929 -1.409071 197 191 184
0.346903 0.223009 -1.415929 196 190 184
0.354453 0.223305 -1.417811 197 190 186
6.125000 1.968750 -12.500000 187 175 170
6.187500 1.968750 -12.500000 187 172 169
6.250000 1.968750 -12.500000 187 173 168
6.312500 1.968750 -12.500000 185 174 166
6.000000 1.852941 -11.764706 184 174 165
6.058824 1.852941 -11.764706 183 173 167
6.117647 1.852941 -11.764706 183 172 169
6.176471 1.852941 -11.764706 183 173 167
6.235294 1.852941 -11.764706 185 174 166
6.202899 1.826087 -11.594203 185 173 167
6.260870 1.826087 -11.594203 187 174 169
6.318841 1.826087 -11.594203 184 172 167
6.937500 1.968750 -12.500000 183 171 166
7.000000 1.968750 -12.500000 181 170 164
7.062500 1.968750 -12.500000 181 171 164
6.400000 1.768421 -11.228070 180 171 164
6.618705 1.812950 -11.510792 181 170 162
6.823529 1.852941 -11.764706 184 171 163
7.312500 1.968750 -12.500000 184 170 163
6.989170 1.819495 -11.552346 184 166 166
-6.750000 1.906250 -12.500000 230 214 207
-6.687500 1.906250 -12.500000 231 214 206
-6.625000 1.906250 -12.500000 229 213 206
-6.562500 1.906250 -12.500000 227 211 207
-6.500000 1.906250 -12.500000 227 210 210
-6.149254 1.820896 -11.940298 226 211 210
-6.000000 1.794118 -11.764706 225 212 211
-6.250000 1.906250 -12.500000 227 213 209
-6.187500 1.906250 -12.500000 228 214 208
-6.125000 1.906250 -12.500000 226 214 209
-6.062500 1.906250 -12.500000 225 214 207
-0.816817 0.293093 -1.921922 15 4 6
-0.806723 0.292917 -1.920768 10 2 5
-0.797598 0.293093 -1.921922 5 1 2
-0.789886 0.293799 -1.926550 2 0 0
-0.788321 0.296837 -1.946472 2 0 1
-0.706444 0.291169 -1.909308 4 1 2
-0.695238 0.290476 -1.904762 2 1 1
-0.684492 0.289958 -1.901367 1 0 1
-0.520890 0.264786 -1.736300 125 78 56
-0.509169 0.263215 -1.725998 131 86 63
-0.497320 0.261522 -1.714898 135 90 68
-0.485365 0.259713 -1.703034 137 92 72
-0.473073 0.257656 -1.689546 141 95 78
-0.461216 0.255765 -1.677149 142 95 83
-0.450000 0.254167 -1.666667 144 95 88
-0.439834 0.253112 -1.659751 147 97 90
-0.284698 0.217082 -1.423488 101 54 41
-0.276841 0.216504 -1.419698 90 46 30
-0.269265 0.216120 -1.417183 80 37 23
-0.260678 0.214883 -1.409071 67 27 17
-0.251748 0.213287 -1.398601 53 17 11
-0.244755 0.213287 -1.398601 42 9 6
-0.237762 0.213287 -1.398601 33 6 4
-0.230769 0.213287 -1.398601 24 3 3
-0.223776 0.213287 -1.398601 16 2 2
-0.216783 0.213287 -1.398601 8 1 1
-0.209790 0.213287 -1.398601 3 0 0
-0.202797 0.213287 -1.398601 2 0 1
-0.195804 0.213287 -1.398601 3 1 1
-0.188811 0.213287 -1.398601 1 0 1
-0.181818 0.213287 -1.398601 0 1 1
-0.174825 0.213287 -1.398601 1 1 1
-0.167832 0.213287 -1.398601 3 1 3
-0.160839 0.213287 -1.398601 5 3 6
-0.153846 0.213287 -1.398601 6 5 6
-0.147563 0.214317 -1.405358 8 7 6
-0.188346 0.287228 -1.883461 8 6 5
-0.265271 0.425829 -2.792321 23 20 21
-0.250871 0.425087 -2.787457 114 112 111
-0.236111 0.423611 -2.777778 193 192 188
-0.222222 0.423611 -2.777778 204 203 199
-0.208333 0.423611 -2.777778 203 202 198
-0.300000 1.525000 -10.000000 203 205 196
-0.284698 1.736655 -11.387900 203 206 199
-0.222222 1.694444 -11.111111 204 205 199
-0.164384 1.671233 -10.958904 203 203 197
-0.071749 1.094170 -7.174888 202 204 198
-0.054237 1.654237 -10.847458 200 204 198
0.451977 1.378531 -9.039548 203 201 198
0.521739 1.326087 -8.695652 201 201 195
0.230112 0.219326 -1.438202 198 195 191
0.238052 0.220018 -1.442741 198 196 193
0.245487 0.220217 -1.444043 197 196 192
0.288939 0.220316 -1.444695 197 193 189
0.309451 0.214505 -1.406593 196 191 187
0.316344 0.214411 -1.405975 195 190 188
0.321678 0.213287 -1.398601 196 190 189
0.329969 0.214129 -1.404125 197 191 187
0.337138 0.214223 -1.404741 198 191 186
0.345831 0.215262 -1.411557 196 191 184
0.354139 0.216025 -1.416556 198 191 185
6.125000 1.906250 -12.500000 186 173 171
6.187500 1.906250 -12.500000 186 173 170
6.250000 1.906250 -12.500000 185 174 169
6.312500 1.906250 -12.500000 184 175 168
5.978022 1.787546 -11.721612 184 174 168
6.081181 1.800738 -11.808118 184 172 168
6.117647 1.794118 -11.764706 185 172 169
6.176471 1.794118 -11.764706 186 173 168
6.144928 1.768116 -11.594203 186 175 166
6.114286 1.742857 -11.428572 184 174 164
6.063158 1.712281 -11.228070 186 174 166
6.076655 1.700348 -11.149826 187 174 167
6.111111 1.694444 -11.111111 186 173 166
6.166667 1.694444 -11.111111 184 171 163
6.222222 1.694444 -11.111111 182 170 163
6.299652 1.700348 -11.149826 180 170 164
6.400000 1.712281 -11.228070 181 171 166
6.618705 1.755396 -11.510792 183 171 165
6.823529 1.794118 -11.764706 185 171 166
6.907749 1.800738 -11.808118 183 170 164
6.966790 1.800738 -11.808118 184 170 163
6.840990 1.724382 -11.307421 182 167 165
-6.750000 1.843750 -12.500000 228 213 208
-6.687500 1.843750 -12.500000 228 214 206
-6.625000 1.843750 -12.500000 225 213 205
-6.562500 1.843750 -12.500000 224 213 206
-6.500000 1.843750 -12.500000 223 211 206
-6.437500 1.843750 -12.500000 224 212 208
-6.375000 1.843750 -12.500000 225 212 208
-6.187500 1.843750 -12.500000 227 213 207
-6.125000 1.843750 -12.500000 227 213 209
-6.062500 1.843750 -12.500000 225 213 207
-6.000000 1.843750 -12.500000 225 212 204
-0.828916 0.284337 -1.927711 21 12 9
-0.816327 0.283313 -1.920768 11 3 5
-0.807207 0.283483 -1.921922 8 2 5
-0.806315 0.286582 -1.942927 7 2 3
-0.796600 0.286582 -1.942927 5 1 0
-0.783082 0.285196 -1.933535 3 0 1
-0.770620 0.284166 -1.926550 2 0 2
-0.759124 0.287105 -1.946472 5 1 3
-0.746667 0.286061 -1.939394 4 1 2
-0.730769 0.283654 -1.923077 8 2 3
-0.715990 0.281623 -1.909308 10 4 5
-0.705182 0.281120 -1.905896 4 1 2
-0.695238 0.280952 -1.904762 1 1 1
-0.684492 0.280452 -1.901367 2 0 1
-0.510270 0.255135 -1.729730 132 86 65
-0.499462 0.254037 -1.722282 134 89 68
-0.486919 0.252002 -1.708489 137 93 74
-0.474576 0.250000 -1.694915 142 98 82
-0.462185 0.247899 -1.680672 146 100 87
-0.452830 0.247379 -1.677149 149 100 91
-0.441667 0.245833 -1.666667 152 101 91
-0.285332 0.210432 -1.426661 115 68 52
-0.276596 0.209220 -1.418440 103 57 38
-0.269027 0.208850 -1.415929 92 46 29
-0.260678 0.207838 -1.409071 79 35 23
-0.251748 0.206294 -1.398601 67 25 17
-0.244755 0.206294 -1.398601 55 17 9
-0.237762 0.206294 -1.398601 42 9 4
-0.230769 0.206294 -1.398601 32 5 2
-0.223776 0.206294 -1.398601 22 3 2
-0.216783 0.206294 -1.398601 13 1 1
-0.209790 0.206294 -1.398601 6 1 0
-0.202797 0.206294 -1.398601 2 0 0
-0.195804 0.206294 -1.398601 1 0 0
-0.188811 0.206294 -1.398601 1 0 1
-0.181818 0.206294 -1.398601 0 1 0
-0.174825 0.206294 -1.398601 1 1 1
-0.167832 0.206294 -1.398601 2 1 2
-0.160839 0.206294 -1.398601 4 2 4
-0.153846 0.206294 -1.398601 3 2 3
-0.147563 0.207290 -1.405358 4 4 3
-0.188346 0.277810 -1.883461 7 5 6
-0.180308 0.279953 -1.897983 12 10 12
-0.249351 0.408658 -2.770563 72 68 69
-0.235498 0.408658 -2.770563 173 168 165
-0.220690 0.406897 -2.758621 201 197 193
-0.204255 0.401702 -2.723404 200 199 194
-0.190153 0.400679 -2.716469 203 202 198
-0.176570 0.400679 -2.716469 202 203 198
-0.171582 0.421805 -2.859696 203 204 200
-0.222997 1.644599 -11.149826 204 205 197
-0.164384 1.616438 -10.958904 202 204 197
-0.109215 1.610922 -10.921502 201 204 198
-0.054608 1.610922 -10.921502 201 204 198
0.230423 0.212421 -1.440144 199 194 191
0.238052 0.212804 -1.442741 199 195 193
0.245377 0.212900 -1.443392 199 196 193
0.252708 0.212996 -1.444043 197 195 191
0.258993 0.212230 -1.438849 198 194 189
0.266187 0.212230 -1.438849 198 195 188
0.274492 0.213093 -1.444695 198 195 187
0.288939 0.213093 -1.444695 195 192 187
0.296564 0.213382 -1.446655 196 192 187
0.310680 0.208297 -1.412180 195 191 186
0.316344 0.207381 -1.405975 195 190 188
0.321678 0.206294 -1.398601 196 189 189
0.328671 0.206294 -1.398601 198 189 188
0.335664 0.206294 -1.398601 199 191 187
0.347056 0.208942 -1.416556 197 192 184
0.354610 0.209220 -1.418440 197 191 183
6.187500 1.843750 -12.500000 186 175 171
6.250000 1.843750 -12.500000 184 174 170
6.312500 1.843750 -12.500000 182 174 170
6.044445 1.748148 -11.851851 183 174 170
6.103703 1.748148 -11.851851 184 172 170
6.117647 1.735294 -11.764706 186 171 169
6.176471 1.735294 -11.764706 186 172 167
6.189781 1.722628 -11.678832 185 174 166
6.180505 1.703971 -11.552346 184 173 165
6.238267 1.703971 -11.552346 185 172 165
6.184397 1.673759 -11.347518 188 173 169
6.197183 1.661972 -11.267606 186 171 167
6.253521 1.661972 -11.267606 184 170 163
6.287719 1.656140 -11.228070 184 170 164
6.343860 1.656140 -11.228070 182 169 164
6.514286 1.685714 -11.428572 184 171 166
6.764706 1.735294 -11.764706 185 170 168
6.848709 1.741697 -11.808118 185 169 170
7.312500 1.843750 -12.500000 183 168 167
6.966790 1.741697 -11.808118 182 168 163
6.848921 1.697842 -11.510792 183 169 162
6.689896 1.644599 -11.149826 180 167 163
6.698962 1.633218 -11.072664 180 166 163
-6.750000 1.781250 -12.500000 226 211 209
-6.687500 1.781250 -12.500000 226 212 207
-6.625000 1.781250 -12.500000 225 213 208
-6.562500 1.781250 -12.500000 223 213 207
-6.500000 1.781250 -12.500000 223 211 205
-6.437500 1.781250 -12.500000 226 212 206
-6.375000 1.781250 -12.500000 229 213 207
-6.312500 1.781250 -12.500000 229 212 206
-6.250000 1.781250 -12.500000 230 214 207
-6.125000 1.781250 -12.500000 226 211 208
-6.062500 1.781250 -12.500000 225 212 208
-0.835534 0.273709 -1.920768 34 28 19
-0.826426 0.273874 -1.921922 17 11 9
-0.816817 0.273874 -1.921922 8 5 7
-0.808178 0.274203 -1.924233 6 3 5
-0.807786 0.277372 -1.946472 6 2 2
-0.798054 0.277372 -1.946472 5 0 1
-0.783082 0.275529 -1.933535 3 0 1
-0.767846 0.273545 -1.919616 1 0 1
-0.768856 0.277372 -1.946472 1 0 1
-0.759124 0.277372 -1.946472 2 1 2
-0.749392 0.277372 -1.946472 3 1 2
-0.730769 0.274038 -1.923077 7 2 3
-0.715990 0.272076 -1.909308 8 3 3
-0.705182 0.271590 -1.905896 3 1 1
-0.695238 0.271429 -1.904762 1 1 1
-0.685714 0.271429 -1.904762 1 1 1
-0.679832 0.272890 -1.915021 4 1 1
-0.673077 0.274038 -1.923077 8 1 1
-0.512208 0.247423 -1.736300 127 81 62
-0.501622 0.246486 -1.729730 130 84 66
-0.489796 0.244898 -1.718582 135 92 74
-0.477612 0.243070 -1.705757 140 97 81
-0.465362 0.241142 -1.692226 144 98 85
-0.453305 0.239244 -1.678909 147 98 88
-0.441667 0.237500 -1.666667 150 99 87
-0.430196 0.235781 -1.654602 153 102 87
-0.421488 0.235537 -1.652893 155 106 90
-0.410256 0.233846 -1.641026 154 106 92
-0.285332 0.203299 -1.426661 129 84 65
-0.276596 0.202128 -1.418440 118 72 50
-0.268670 0.201502 -1.414052 102 56 35
-0.260334 0.200528 -1.407212 91 43 29
-0.252632 0.200000 -1.403509 80 33 21
-0.244755 0.199301 -1.398601 66 24 13
-0.237762 0.199301 -1.398601 52 15 7
-0.230769 0.199301 -1.398601 38 9 4
-0.223776 0.199301 -1.398601 24 4 2
-0.216783 0.199301 -1.398601 14 1 1
-0.209790 0.199301 -1.398601 8 0 1
-0.202797 0.199301 -1.398601 2 0 0
-0.195804 0.199301 -1.398601 2 0 1
-0.188811 0.199301 -1.398601 3 1 2
-0.181818 0.199301 -1.398601 1 1 1
-0.174825 0.199301 -1.398601 1 1 1
-0.167832 0.199301 -1.398601 2 1 2
-0.160839 0.199301 -1.398601 4 3 4
-0.153846 0.199301 -1.398601 3 1 2
-0.199288 0.270463 -1.897983 3 2 2
-0.189686 0.270302 -1.896858 5 3 5
-0.178929 0.268393 -1.883461 8 6 8
-0.169312 0.268078 -1.881246 27 23 23
-0.230508 0.386441 -2.711864 109 104 100
-0.216949 0.386441 -2.711864 183 179 172
-0.202703 0.385135 -2.702703 199 197 190
-0.188552 0.383838 -2.693603 201 201 196
-0.173913 0.381271 -2.675585 202 202 199
-0.162574 0.386113 -2.709568 204 205 202
-0.312500 1.781250 -12.500000 205 204 198
-0.237037 1.688889 -11.851851 203 204 197
-0.167247 1.588850 -11.149826 200 203 197
-0.111111 1.583333 -11.111111 200 203 198
-0.059480 1.695167 -11.895911 202 203 199
0.245487 0.205776 -1.444043 199 193 191
0.252708 0.205776 -1.444043 199 194 190
0.258993 0.205036 -1.438849 199 195 189
0.266187 0.205036 -1.438849 199 195 188
0.274492 0.205869 -1.444695 197 193 186
0.289331 0.206148 -1.446655 196 194 188
0.315928 0.200088 -1.404125 194 191 187
0.321678 0.199301 -1.398601 194 190 186
0.328671 0.199301 -1.398601 195 190 186
0.335664 0.199301 -1.398601 196 191 184
0.347056 0.201859 -1.416556 197 191 182
0.354610 0.202128 -1.418440 199 191 182
6.312500 1.781250 -12.500000 182 174 170
6.375000 1.781250 -12.500000 182 174 169
6.103703 1.688889 -11.851851 185 173 170
6.140222 1.682657 -11.808118 186 172 169
6.176471 1.676471 -11.764706 186 172 169
6.212454 1.670330 -11.721612 184 171 168
6.225454 1.658182 -11.636364 185 172 168
6.329670 1.670330 -11.721612 188 172 168
6.364964 1.664234 -11.678832 188 170 168
6.423357 1.664234 -11.678832 186 170 169
6.481752 1.664234 -11.678832 185 170 167
6.287719 1.600000 -11.228070 183 168 163
7.062500 1.781250 -12.500000 184 168 162
6.561151 1.640288 -11.510792 186 169 165
7.187500 1.781250 -12.500000 187 169 167
7.250000 1.781250 -12.500000 186 169 169
7.312500 1.781250 -12.500000 185 167 168
6.791367 1.640288 -11.510792 185 167 165
6.824373 1.634409 -11.469534 186 169 164
6.689896 1.588850 -11.149826 185 169 163
6.698962 1.577855 -11.072664 183 167 162
-6.750000 1.718750 -12.500000 229 211 210
-6.687500 1.718750 -12.500000 229 213 210
-6.625000 1.718750 -12.500000 228 213 211
-6.562500 1.718750 -12.500000 227 213 210
-6.500000 1.718750 -12.500000 227 213 209
-6.437500 1.718750 -12.500000 229 212 209
-6.375000 1.718750 -12.500000 229 210 208
-6.312500 1.718750 -12.500000 228 210 205
-6.250000 1.718750 -12.500000 230 213 207
-6.125000 1.718750 -12.500000 227 211 208
-6.062500 1.718750 -12.500000 226 212 209
-0.835033 0.263947 -1.919616 29 22 18
-0.826923 0.264423 -1.923077 18 11 12
-0.817308 0.264423 -1.923077 9 6 8
-0.809639 0.265060 -1.927711 4 3 3
-0.808278 0.267803 -1.947657 5 2 1
-0.798539 0.267803 -1.947657 4 1 2
-0.777911 0.264106 -1.920768 2 1 1
-0.764636 0.262843 -1.911589 0 0 0
-0.754177 0.262530 -1.909308 1 0 0
-0.756364 0.266667 -1.939394 2 0 1
-0.752596 0.268784 -1.954795 4 1 2
-0.736970 0.266667 -1.939394 4 1 1
-0.715990 0.262530 -1.909308 3 1 1
-0.705602 0.262217 -1.907032 2 1 1
-0.696067 0.262217 -1.907032 1 1 1
-0.685714 0.261905 -1.904762 1 1 1
-0.679426 0.263158 -1.913876 3 1 0
-0.673077 0.264423 -1.923077 9 1 1
-0.512208 0.238741 -1.736300 128 82 61
-0.503254 0.238612 -1.735358 134 88 68
-0.490850 0.236814 -1.722282 136 92 74
-0.478377 0.234917 -1.708489 139 94 79
-0.466102 0.233051 -1.694915 142 96 83
-0.453782 0.231092 -1.680672 144 96 83
-0.441667 0.229167 -1.666667 146 97 83
-0.429752 0.227273 -1.652893 150 100 85
-0.418247 0.225525 -1.640185 152 103 87
-0.407125 0.223919 -1.628499 151 103 88
-0.398374 0.223577 -1.626016 150 102 87
-0.387097 0.221774 -1.612903 149 101 84
-0.276964 0.195295 -1.420328 124 81 56
